ply
format ascii 1.0
element vertex 1114
property float x
property float y
property float z
property uchar red
property uchar green
property uchar blue
end_header
104.463272 482.980469 86.326035 77 175 74
132.080002 396.239990 90.480003 77 175 74
106.680000 360.679993 97.440002 77 175 74
153.049210 416.559998 107.957901 77 175 74
135.889999 397.510010 111.360001 77 175 74
119.379997 405.130005 111.360001 77 175 74
163.830002 473.709991 6.960000 77 175 74
208.279999 422.910004 13.920000 255 127 0
231.139999 447.040009 13.920000 255 127 0
200.660004 461.010010 13.920000 255 127 0
245.456955 458.352173 25.938583 55 126 184
201.929993 345.440002 27.840000 55 126 184
208.069412 358.988831 31.897028 55 126 184
214.630005 368.299988 27.840000 55 126 184
181.610001 397.510010 27.840000 55 126 184
236.206024 397.023224 37.819469 55 126 184
166.324692 407.690887 36.776295 55 126 184
222.250000 363.220001 34.799999 55 126 184
200.660004 473.709991 34.799999 55 126 184
259.079987 420.369995 41.759998 152 78 163
266.700012 427.989990 41.759998 228 26 28
220.979996 434.339996 41.759998 152 78 163
251.460007 361.950012 48.720001 152 78 163
237.490005 410.209991 48.720001 152 78 163
259.079987 436.880005 48.720001 152 78 163
193.039993 444.500000 48.720001 255 127 0
203.199997 403.859985 55.680000 255 127 0
219.710007 463.549988 55.680000 55 126 184
229.869995 481.329987 55.680000 55 126 184
259.079987 389.890015 62.639999 55 126 184
176.529999 426.720001 62.639999 152 78 163
259.079987 443.230011 62.639999 152 78 163
250.190002 384.809998 76.559998 152 78 163
207.009995 435.609985 76.559998 152 78 163
214.630005 444.500000 76.559998 152 78 163
211.522858 398.776276 92.013611 152 78 163
254.000000 402.589996 83.519997 228 26 28
259.079987 342.899994 90.480003 228 26 28
271.779999 378.459991 90.480003 228 26 28
242.570007 410.209991 90.480003 152 78 163
185.419998 369.570007 104.400002 255 127 0
234.495468 407.804138 112.907074 255 127 0
234.949997 422.910004 111.360001 255 127 0
463.727936 484.593964 10.927588 255 127 0
464.820007 375.920013 20.879999 255 127 0
438.149994 388.619995 20.879999 255 127 0
433.070007 477.519989 20.879999 55 126 184
384.809998 431.799988 27.840000 55 126 184
438.149994 444.500000 27.840000 152 78 163
369.570007 378.459991 34.799999 152 78 163
370.839996 393.700012 34.799999 152 78 163
361.950012 400.049988 34.799999 152 78 163
373.380005 411.480011 34.799999 152 78 163
439.420013 433.070007 34.799999 152 78 163
402.589996 452.119995 34.799999 152 78 163
478.024384 487.679993 38.995754 152 78 163
403.859985 393.700012 41.759998 152 78 163
394.288513 437.419495 52.723339 152 78 163
380.166046 456.763947 45.603447 152 78 163
450.850006 368.299988 48.720001 152 78 163
455.929993 406.399994 55.680000 55 126 184
457.200012 440.690002 55.680000 55 126 184
394.970001 386.079987 62.639999 55 126 184
384.809998 396.239990 62.639999 55 126 184
444.500000 368.299988 69.599998 55 126 184
462.279999 403.859985 69.599998 55 126 184
384.809998 417.829987 69.599998 55 126 184
457.200012 342.899994 76.559998 152 78 163
444.500000 468.630005 76.559998 152 78 163
337.820007 481.329987 76.559998 152 78 163
373.380005 347.980011 83.519997 152 78 163
414.019989 378.459991 83.519997 152 78 163
424.179993 416.559998 83.519997 152 78 163
433.111420 418.527100 87.113457 55 126 184
328.929993 467.359985 83.519997 55 126 184
457.200012 364.489990 90.480003 55 126 184
455.929993 421.640015 90.480003 55 126 184
477.519989 430.529999 90.480003 55 126 184
447.040009 450.850006 90.480003 55 126 184
449.579987 457.200012 90.480003 55 126 184
351.790009 419.100006 111.360001 55 126 184
478.790009 424.179993 111.360001 255 127 0
463.549988 455.929993 111.360001 255 127 0
494.029999 327.660004 6.960000 255 127 0
549.909973 469.899994 6.960000 255 127 0
598.169983 487.679993 6.960000 255 127 0
534.669983 430.529999 13.920000 255 127 0
499.109985 344.170013 20.879999 255 127 0
571.768982 478.790009 74.451469 255 127 0
566.419983 426.720001 76.559998 255 127 0
490.220001 426.720001 83.519997 255 127 0
510.540009 394.970001 90.480003 255 127 0
504.190002 443.230011 90.480003 55 126 184
505.194763 412.622467 107.530518 255 127 0
500.380005 331.470001 104.400002 255 127 0
181.608139 512.570862 23.670101 255 127 0
240.029999 516.890015 34.799999 55 126 184
271.779999 509.269989 62.639999 152 78 163
246.380005 494.029999 90.480003 55 126 184
171.449997 509.269989 90.480003 255 127 0
215.899994 543.559998 90.480003 255 127 0
208.279999 511.809998 104.400002 255 127 0
473.868286 507.444153 10.873744 255 127 0
384.809998 491.489990 34.799999 55 126 184
435.565063 492.422058 43.298435 152 78 163
376.892517 493.975861 65.269348 228 26 28
363.220001 491.489990 69.599998 228 26 28
492.760010 521.969971 13.920000 255 127 0
496.570007 494.029999 20.879999 77 175 74
177.800003 99.059998 118.320000 77 175 74
297.179993 102.870003 139.199997 55 126 184
293.369995 129.539993 139.199997 255 127 0
208.279999 91.440002 153.119995 77 175 74
379.730011 125.730003 125.279999 77 175 74
331.470001 110.489998 139.199997 255 127 0
327.660004 120.650002 146.160004 55 126 184
332.739990 144.779999 146.160004 55 126 184
425.450012 160.020004 153.119995 255 127 0
98.463074 296.583069 122.008659 77 175 74
85.322487 308.842499 129.397049 77 175 74
135.889999 199.389999 153.119995 77 175 74
204.470001 215.899994 118.320000 152 78 163
248.919998 308.609985 118.320000 228 26 28
228.600006 167.639999 125.279999 152 78 163
201.215836 303.693207 157.033813 255 127 0
207.009995 313.690002 153.119995 77 175 74
210.820007 247.649994 174.000000 55 126 184
393.073120 319.769501 127.233177 152 78 163
417.481995 247.824005 135.006180 228 26 28
358.367889 269.027618 134.652863 228 26 28
415.290009 248.919998 139.199997 152 78 163
400.049988 173.990005 146.160004 55 126 184
377.190002 176.529999 146.160004 55 126 184
398.779999 184.149994 153.119995 55 126 184
386.079987 190.500000 153.119995 255 127 0
383.540009 234.949997 153.119995 255 127 0
488.950012 271.779999 153.119995 255 127 0
133.350006 352.405579 135.826508 77 175 74
121.919998 438.149994 139.199997 77 175 74
101.599998 441.959991 139.199997 77 175 74
187.960007 346.709991 118.320000 55 126 184
259.079987 416.559998 118.320000 55 126 184
254.000000 477.519989 118.320000 152 78 163
167.639999 330.200012 125.279999 152 78 163
168.964417 338.061676 142.082520 152 78 163
246.380005 370.839996 132.240005 55 126 184
169.406097 372.993042 137.079361 55 126 184
290.829987 421.640015 132.240005 55 126 184
210.820007 444.500000 132.240005 55 126 184
290.829987 468.630005 139.199997 55 126 184
311.149994 365.760010 146.160004 55 126 184
204.470001 462.279999 180.960007 55 126 184
255.270004 326.390015 208.800003 152 78 163
328.929993 416.559998 118.320000 228 26 28
345.440002 420.369995 118.320000 228 26 28
393.700012 330.529175 129.661957 152 78 163
486.410004 434.339996 125.279999 55 126 184
427.989990 457.200012 125.279999 255 127 0
346.709991 326.390015 132.240005 55 126 184
467.359985 405.130005 132.240005 55 126 184
457.867096 474.377106 149.815872 255 127 0
367.029999 354.720825 177.926056 255 127 0
388.619995 461.010010 174.000000 255 127 0
358.140015 358.140015 208.800003 55 126 184
556.260010 387.350006 132.240005 55 126 184
551.179993 453.390015 139.199997 255 127 0
223.520004 533.400024 132.240005 77 175 74
246.380005 502.920013 139.199997 77 175 74
247.649994 525.780029 139.199997 77 175 74
194.309998 551.179993 139.199997 77 175 74
406.399994 496.570007 118.320000 77 175 74
396.239990 322.579987 236.639999 255 127 0
179.070007 405.130005 13.920000 255 127 0
541.716553 409.401093 105.971367 255 127 0
579.119995 483.869995 97.440002 255 127 0
100.330002 500.380005 97.440002 255 127 0
163.830002 506.730011 6.960000 77 175 74
182.880005 501.649994 13.920000 77 175 74
370.839996 86.360001 97.440002 77 175 74
212.089996 219.710007 97.440002 55 126 184
215.899994 281.940002 97.440002 152 78 163
189.229996 283.209991 97.440002 152 78 163
200.899490 314.720520 101.642494 55 126 184
403.859985 306.070007 34.799999 55 126 184
447.040009 283.209991 97.440002 152 78 163
480.059998 316.230011 97.440002 255 127 0
81.279999 365.760010 34.799999 77 175 74
134.619995 378.459991 48.720001 77 175 74
172.720001 400.049988 48.720001 255 127 0
255.270004 335.279999 97.440002 228 26 28
275.589996 335.279999 97.440002 228 26 28
308.609985 406.399994 97.440002 228 26 28
323.850006 421.640015 97.440002 228 26 28
245.110001 429.260010 97.440002 55 126 184
300.989990 434.339996 97.440002 228 26 28
303.529999 461.010010 97.440002 228 26 28
299.720001 472.440002 97.440002 228 26 28
411.480011 342.899994 97.440002 152 78 163
453.390015 349.250000 97.440002 55 126 184
398.001801 352.179108 102.267586 152 78 163
392.429993 364.489990 97.440002 152 78 163
520.700012 388.619995 20.879999 55 126 184
571.500000 369.570007 34.799999 77 175 74
488.457611 340.454559 105.505272 255 127 0
539.750000 420.369995 97.440002 255 127 0
537.210022 466.089996 97.440002 255 127 0
212.089996 495.299988 97.440002 77 175 74
165.100006 520.700012 97.440002 77 175 74
156.210007 107.949997 83.519997 77 175 74
182.880005 106.680000 76.559998 77 175 74
186.690002 162.559998 97.440002 77 175 74
321.309998 93.980003 111.360001 77 175 74
316.230011 123.190002 111.360001 77 175 74
431.799988 138.429993 62.639999 77 175 74
375.920013 121.919998 69.599998 77 175 74
398.779999 121.919998 76.559998 77 175 74
407.670013 129.539993 76.559998 255 127 0
469.899994 158.750000 76.559998 77 175 74
411.480011 113.029999 83.519997 77 175 74
407.670013 124.459999 90.480003 77 175 74
339.089996 162.559998 97.440002 255 127 0
328.929993 99.059998 111.360001 255 127 0
355.600006 115.570000 111.360001 255 127 0
331.470001 125.730003 111.360001 255 127 0
340.359985 129.539993 111.360001 55 126 184
369.570007 154.940002 111.360001 55 126 184
327.660004 156.210007 111.360001 55 126 184
157.479996 227.330002 34.799999 255 127 0
138.429993 306.070007 41.759998 255 127 0
157.479996 196.850006 48.720001 77 175 74
128.270004 300.989990 48.720001 77 175 74
146.684998 316.230011 59.160000 77 175 74
161.289993 303.529999 69.599998 77 175 74
160.020004 247.014999 80.040001 77 175 74
153.669998 172.720001 83.519997 77 175 74
136.937485 262.890015 94.713516 77 175 74
140.534592 297.596344 105.488541 77 175 74
142.240005 285.750000 104.400002 255 127 0
158.750000 251.460007 111.360001 255 127 0
176.529999 262.890015 34.799999 255 127 0
181.610001 312.420013 34.799999 55 126 184
193.692200 270.655853 46.133575 255 127 0
170.179993 302.260010 41.759998 255 127 0
165.859619 191.770004 58.209095 55 126 184
173.990005 205.740005 48.720001 55 126 184
228.600006 314.959991 48.720001 255 127 0
170.179993 179.070007 55.680000 255 127 0
182.491623 188.894073 65.976295 55 126 184
178.026810 242.894119 64.416275 152 78 163
209.550003 264.160004 55.680000 152 78 163
180.339996 268.605011 59.160000 55 126 184
165.100006 191.770004 62.639999 55 126 184
210.820007 276.859985 62.639999 152 78 163
238.759995 312.420013 62.639999 152 78 163
209.550003 227.330002 69.599998 152 78 163
171.449997 259.079987 69.599998 152 78 163
239.447845 284.480011 73.369629 55 126 184
242.570007 292.100006 69.599998 55 126 184
174.027832 320.393127 76.943565 55 126 184
223.520004 208.279999 76.559998 55 126 184
167.052582 238.759995 80.300728 55 126 184
227.330002 261.619995 76.559998 152 78 163
195.580002 311.149994 76.559998 152 78 163
214.630005 260.350006 83.519997 228 26 28
218.440002 316.230011 83.519997 228 26 28
231.139999 242.570007 90.480003 228 26 28
230.151947 254.861130 99.222794 228 26 28
217.169998 273.049988 90.480003 228 26 28
170.179993 304.799988 90.480003 255 127 0
187.960007 170.179993 97.440002 77 175 74
195.417709 211.992157 106.932938 152 78 163
238.759995 262.890015 97.440002 228 26 28
324.850311 289.943695 107.779137 228 26 28
321.916565 304.799988 101.075760 228 26 28
198.119995 316.230011 97.440002 152 78 163
215.499481 319.306000 107.337372 152 78 163
231.139999 321.309998 97.440002 152 78 163
180.339996 237.490005 104.400002 228 26 28
243.839996 237.882324 109.209961 228 26 28
229.869995 255.270004 104.400002 228 26 28
224.789993 281.940002 104.400002 228 26 28
312.420013 313.690002 104.400002 152 78 163
177.800003 191.770004 111.360001 255 127 0
209.550003 229.869995 111.360001 152 78 163
325.119995 234.949997 111.360001 228 26 28
220.979996 273.049988 111.360001 55 126 184
471.170013 269.239990 20.879999 255 127 0
458.841553 269.758057 30.871023 77 175 74
435.609985 308.609985 20.879999 77 175 74
461.617554 307.402832 38.474003 255 127 0
434.339996 261.619995 34.799999 255 127 0
410.209991 288.290009 34.799999 77 175 74
419.100006 223.520004 41.759998 77 175 74
410.209991 231.139999 41.759998 77 175 74
426.377350 236.240372 50.599087 77 175 74
397.510010 241.300003 41.759998 77 175 74
387.350006 262.890015 41.759998 77 175 74
411.480011 266.700012 41.759998 55 126 184
415.290009 302.260010 41.759998 152 78 163
430.529999 217.169998 48.720001 152 78 163
412.750000 222.250000 48.720001 55 126 184
385.437134 271.779999 52.243141 255 127 0
474.980011 177.800003 55.680000 255 127 0
401.320007 207.645004 59.160000 255 127 0
375.926453 256.967621 62.675282 55 126 184
472.057434 294.462524 66.681946 55 126 184
361.950012 308.609985 55.680000 55 126 184
434.339996 171.449997 62.639999 55 126 184
442.045227 201.422836 66.353539 152 78 163
463.549988 212.089996 62.639999 152 78 163
372.109985 287.019989 66.176125 152 78 163
485.140015 287.019989 62.639999 55 126 184
374.649994 171.449997 69.599998 255 127 0
412.750000 179.070007 69.599998 55 126 184
466.089996 287.019989 69.599998 55 126 184
340.359985 304.799988 69.599998 152 78 163
367.029999 177.800003 76.559998 152 78 163
468.630005 269.239990 76.559998 152 78 163
370.839996 278.685638 80.184952 152 78 163
389.400787 295.420776 86.615715 152 78 163
407.670013 267.970001 83.519997 152 78 163
466.089996 283.209991 83.519997 152 78 163
428.646484 286.406494 87.117722 152 78 163
417.829987 289.559998 83.519997 152 78 163
402.589996 325.119995 83.519997 152 78 163
444.500000 171.449997 90.480003 152 78 163
447.040009 219.710007 90.480003 152 78 163
358.140015 238.759995 90.480003 152 78 163
480.937469 265.753265 94.402916 55 126 184
422.910004 279.399994 90.480003 55 126 184
427.989990 316.230011 90.480003 55 126 184
381.607391 315.903442 100.705246 55 126 184
450.759155 176.099915 103.902184 55 126 184
417.829987 191.770004 97.440002 255 127 0
337.820007 224.789993 97.440002 255 127 0
463.549988 232.410004 97.440002 55 126 184
361.950012 285.750000 97.440002 152 78 163
459.739990 323.850006 97.440002 152 78 163
391.160004 172.720001 104.400002 152 78 163
435.609985 181.610001 104.400002 152 78 163
372.109985 201.929993 104.400002 152 78 163
331.470001 246.380005 104.400002 152 78 163
402.589996 264.160004 104.400002 152 78 163
409.697174 165.356415 116.914749 152 78 163
377.190002 182.880005 111.360001 152 78 163
487.679993 283.209991 111.360001 152 78 163
338.314301 286.385071 122.383751 152 78 163
477.052856 292.100006 115.146614 55 126 184
535.338623 304.064209 24.544140 77 175 74
488.950012 266.700012 27.840000 77 175 74
492.760010 257.809998 41.759998 77 175 74
504.190002 261.619995 55.680000 77 175 74
524.510010 321.309998 69.599998 77 175 74
488.950012 201.929993 76.559998 77 175 74
505.459991 289.559998 76.559998 77 175 74
519.431335 315.179474 92.108192 77 175 74
501.649994 290.829987 97.440002 77 175 74
518.159973 316.230011 97.440002 77 175 74
144.779999 350.519989 6.960000 77 175 74
101.599998 383.540009 6.960000 77 175 74
109.220001 457.200012 6.960000 77 175 74
132.378052 486.970490 17.808365 77 175 74
85.089996 481.329987 43.677223 77 175 74
99.059998 487.679993 34.799999 77 175 74
88.900002 341.630005 41.759998 77 175 74
161.289993 346.709991 41.759998 77 175 74
138.429993 421.640015 41.759998 77 175 74
100.330002 436.880005 41.759998 77 175 74
120.650002 444.500000 41.759998 77 175 74
145.570770 395.642731 64.806839 77 175 74
139.699997 425.450012 55.680000 77 175 74
158.750000 424.179993 83.519997 77 175 74
87.629997 469.899994 83.519997 77 175 74
120.650002 427.989990 90.480003 77 175 74
101.599998 447.040009 97.440002 77 175 74
96.519997 464.820007 97.440002 77 175 74
124.459999 330.200012 104.400002 77 175 74
113.029999 349.250000 104.400002 77 175 74
162.559998 472.440002 104.400002 77 175 74
161.289993 448.309998 111.360001 77 175 74
200.230759 429.122833 15.096172 77 175 74
209.550003 441.959991 6.960000 77 175 74
177.800003 449.579987 6.960000 77 175 74
186.518112 433.482239 22.753510 255 127 0
177.800003 420.369995 30.738922 255 127 0
172.720001 351.790009 34.799999 255 127 0
244.846329 371.846344 39.002499 55 126 184
237.490005 424.179993 34.799999 55 126 184
272.463104 447.954803 43.856224 55 126 184
255.535645 459.104614 43.217236 55 126 184
193.039993 480.059998 34.799999 55 126 184
223.708481 485.516968 45.333797 55 126 184
178.097321 367.871887 51.066265 55 126 184
227.330002 382.269989 41.759998 55 126 184
223.520004 398.779999 41.759998 152 78 163
241.300003 400.049988 41.759998 228 26 28
281.940002 439.421173 51.645157 152 78 163
274.320007 458.470001 41.759998 55 126 184
242.570007 332.739990 48.720001 255 127 0
165.100006 386.079987 48.720001 255 127 0
276.859985 415.290009 48.720001 152 78 163
252.729996 349.250000 55.680000 152 78 163
289.805359 415.780731 65.565941 55 126 184
203.896744 473.260223 64.887550 55 126 184
290.829987 447.040009 62.639999 228 26 28
192.354141 476.643799 67.999359 55 126 184
270.510010 336.549988 69.599998 55 126 184
269.239990 417.829987 69.599998 228 26 28
280.670013 429.260010 69.599998 228 26 28
271.214203 458.716339 77.910049 228 26 28
186.690002 340.359985 76.559998 152 78 163
283.209991 365.760010 76.559998 228 26 28
294.640015 436.880005 76.559998 228 26 28
165.100006 444.500000 76.559998 255 127 0
251.389481 467.218964 80.233223 255 127 0
185.419998 472.440002 76.559998 255 127 0
313.690002 336.549988 83.519997 255 127 0
200.660004 355.600006 83.519997 152 78 163
317.500000 392.429993 83.519997 228 26 28
166.369995 426.720001 83.519997 255 127 0
261.368347 469.919678 91.621712 55 126 184
240.537262 331.088623 95.349960 152 78 163
191.770004 335.279999 90.480003 152 78 163
274.392273 355.600006 99.986397 228 26 28
284.480011 367.029999 90.480003 228 26 28
314.853638 426.408722 99.259186 228 26 28
280.670013 430.529999 90.480003 228 26 28
316.230011 435.609985 90.480003 228 26 28
266.748840 442.570587 94.093811 228 26 28
284.808746 349.578766 101.479446 228 26 28
295.619720 360.280853 102.809143 228 26 28
306.475830 369.126312 106.583885 228 26 28
176.529999 392.429993 97.440002 255 127 0
234.334442 438.149994 101.026512 55 126 184
318.769989 445.769989 97.440002 228 26 28
165.100006 447.040009 97.440002 152 78 163
298.450012 450.850006 97.440002 228 26 28
288.290009 466.089996 97.440002 152 78 163
191.770004 469.899994 97.440002 55 126 184
213.360001 469.899994 97.440002 255 127 0
203.199997 477.519989 101.267357 255 127 0
219.710007 483.869995 97.440002 255 127 0
306.070007 332.739990 104.400002 55 126 184
276.859985 365.760010 104.400002 228 26 28
313.690002 414.019989 104.400002 228 26 28
213.360001 487.679993 104.400002 77 175 74
181.610001 327.660004 111.360001 55 126 184
299.720001 345.440002 111.360001 228 26 28
322.579987 354.329987 111.360001 228 26 28
240.029999 355.600006 111.360001 152 78 163
233.679993 367.029999 111.360001 255 127 0
232.410004 379.730011 111.360001 152 78 163
298.450012 397.510010 111.360001 228 26 28
213.360001 401.320007 111.360001 77 175 74
180.339996 403.859985 111.360001 255 127 0
317.500000 422.910004 111.360001 228 26 28
434.339996 396.239990 6.960000 255 127 0
453.390015 426.720001 6.960000 77 175 74
431.799988 452.119995 6.960000 77 175 74
434.339996 471.170013 6.960000 77 175 74
482.600006 353.059998 13.920000 77 175 74
467.359985 411.480011 13.920000 255 127 0
398.661133 429.954437 17.725719 77 175 74
449.579987 469.899994 13.920000 255 127 0
392.749115 397.088837 24.937027 55 126 184
382.269989 421.640015 25.237877 55 126 184
408.940002 454.660004 20.879999 255 127 0
396.239990 457.200012 20.879999 77 175 74
401.523376 481.062531 30.022581 77 175 74
443.230011 396.239990 27.840000 55 126 184
403.859985 412.750000 27.840000 255 127 0
384.809998 476.250000 27.840000 77 175 74
377.190002 334.010010 34.799999 77 175 74
388.619995 346.709991 34.799999 255 127 0
482.600006 375.920013 34.799999 255 127 0
383.540009 414.019989 34.799999 152 78 163
405.130005 469.899994 34.799999 228 26 28
466.089996 341.630005 41.759998 255 127 0
483.422394 424.877472 45.582302 255 127 0
368.299988 439.420013 41.759998 152 78 163
472.440002 473.709991 41.759998 152 78 163
445.769989 355.600006 48.720001 152 78 163
376.524261 397.246399 56.241604 152 78 163
339.089996 400.049988 48.720001 152 78 163
406.399994 402.589996 48.720001 55 126 184
412.750000 382.269989 69.599998 55 126 184
466.089996 434.339996 69.599998 255 127 0
422.710419 474.980011 79.901894 255 127 0
434.339996 328.929993 76.559998 55 126 184
424.856049 359.860046 87.087440 55 126 184
453.390015 459.739990 76.559998 55 126 184
393.700012 334.010010 83.519997 152 78 163
424.179993 336.549988 83.519997 152 78 163
381.000000 379.730011 83.519997 55 126 184
481.329987 469.899994 83.519997 255 127 0
463.549988 487.679993 83.519997 255 127 0
431.799988 350.519989 90.480003 55 126 184
373.380005 351.790009 90.480003 55 126 184
428.172485 371.363800 102.007034 55 126 184
474.980011 410.209991 90.480003 55 126 184
354.329987 416.559998 90.480003 55 126 184
415.211395 446.343384 99.003258 55 126 184
327.660004 480.059998 90.480003 55 126 184
401.320007 337.820007 97.440002 55 126 184
439.420013 353.059998 97.440002 55 126 184
447.040009 378.459991 97.440002 55 126 184
337.820007 394.970001 97.440002 55 126 184
466.089996 406.399994 97.440002 55 126 184
382.269989 422.910004 97.440002 55 126 184
402.589996 433.070007 97.440002 55 126 184
478.790009 326.390015 104.400002 55 126 184
444.500000 342.899994 104.400002 55 126 184
414.019989 363.220001 104.400002 55 126 184
448.309998 369.570007 104.400002 255 127 0
453.390015 374.649994 104.400002 255 127 0
467.359985 416.559998 104.400002 255 127 0
425.450012 433.070007 108.417603 55 126 184
327.660004 435.609985 104.400002 228 26 28
441.959991 350.519989 111.360001 152 78 163
481.329987 473.709991 111.360001 77 175 74
471.170013 476.250000 111.360001 77 175 74
494.689667 339.828033 16.835302 77 175 74
508.000000 375.920013 6.960000 77 175 74
534.669983 386.079987 6.960000 77 175 74
499.109985 439.420013 6.960000 255 127 0
504.190002 477.519989 6.960000 255 127 0
530.150635 485.140015 14.860432 55 126 184
505.459991 486.410004 6.960000 255 127 0
548.640015 486.410004 6.960000 255 127 0
546.534973 392.429993 22.690407 255 127 0
491.489990 450.850006 13.920000 255 127 0
541.020020 486.410004 13.920000 255 127 0
502.920013 368.299988 20.879999 255 127 0
518.159973 381.000000 20.879999 255 127 0
496.570007 472.440002 41.759998 255 127 0
530.859985 420.369995 48.720001 255 127 0
544.830017 416.559998 55.680000 255 127 0
534.669983 431.799988 55.680000 255 127 0
569.439148 476.082458 60.013966 255 127 0
537.210022 417.829987 62.639999 255 127 0
527.990845 483.869995 67.021950 255 127 0
537.210022 339.089996 69.599998 255 127 0
514.349976 373.380005 69.599998 255 127 0
546.099976 426.720001 69.599998 255 127 0
547.369995 415.290009 76.559998 255 127 0
510.540009 459.739990 76.559998 255 127 0
546.099976 462.279999 76.559998 255 127 0
544.830017 481.329987 83.519997 255 127 0
498.585052 484.636230 87.719208 255 127 0
520.700012 449.579987 90.480003 255 127 0
560.070007 466.089996 90.480003 255 127 0
494.029999 476.250000 97.440002 255 127 0
509.269989 462.279999 104.400002 255 127 0
499.729370 447.219238 122.689651 255 127 0
510.846710 455.286377 120.355019 255 127 0
132.080002 551.179993 6.960000 77 175 74
144.779999 506.730011 13.920000 77 175 74
67.141785 524.030579 18.252705 77 175 74
108.952843 504.345825 31.627865 77 175 74
135.405792 506.337097 28.340462 77 175 74
114.300003 523.239990 27.840000 77 175 74
77.470001 549.909973 34.799999 77 175 74
76.199997 506.730011 48.720001 77 175 74
90.435913 539.507751 57.007580 77 175 74
143.509995 552.450012 48.720001 77 175 74
92.709999 537.210022 76.559998 77 175 74
124.459999 514.349976 83.519997 77 175 74
117.517746 508.552490 98.953918 77 175 74
144.779999 509.269989 97.440002 77 175 74
127.407356 548.175781 106.632446 77 175 74
203.199997 520.700012 6.960000 77 175 74
240.029999 515.619995 13.920000 77 175 74
246.380005 520.700012 13.920000 77 175 74
234.949997 491.489990 20.879999 255 127 0
231.703735 546.099976 24.750584 255 127 0
261.397919 513.241760 37.370110 255 127 0
196.850006 513.080017 27.840000 55 126 184
279.399994 502.920013 48.720001 152 78 163
270.510010 516.890015 55.680000 152 78 163
177.271729 493.288269 73.803772 255 127 0
194.309998 508.000000 69.599998 255 127 0
234.949997 533.400024 69.599998 55 126 184
242.570007 497.839996 97.440002 55 126 184
226.059998 504.190002 97.440002 255 127 0
222.250000 513.080017 97.440002 255 127 0
230.112778 531.555725 101.252625 255 127 0
232.410004 542.289978 97.440002 255 127 0
248.919998 521.969971 104.400002 255 127 0
182.880005 488.950012 111.360001 255 127 0
212.089996 501.649994 111.360001 77 175 74
469.899994 516.890015 13.920000 77 175 74
478.311554 495.672485 36.797287 255 127 0
332.739990 491.489990 97.440002 255 127 0
457.200012 497.839996 97.440002 255 127 0
444.500000 501.649994 104.400002 77 175 74
532.130005 491.489990 20.879999 255 127 0
544.830017 520.700012 20.879999 55 126 184
318.769989 160.020004 118.320000 55 126 184
232.410004 101.599998 125.279999 255 127 0
226.059998 106.680000 132.240005 255 127 0
313.690002 121.919998 132.240005 255 127 0
313.690002 140.970001 132.240005 55 126 184
294.640015 138.429993 139.199997 55 126 184
246.532867 153.669998 143.098862 152 78 163
306.070007 139.699997 146.160004 152 78 163
318.769989 144.779999 146.160004 55 126 184
177.800003 157.479996 146.160004 77 175 74
256.540009 106.680000 153.119995 255 127 0
389.890015 111.760002 118.320000 255 127 0
416.559998 135.889999 118.320000 77 175 74
422.910004 146.050003 118.320000 77 175 74
341.630005 158.750000 125.279999 255 127 0
375.920013 127.000000 146.160004 77 175 74
378.459991 146.050003 146.160004 77 175 74
158.265228 236.420288 129.034424 77 175 74
148.589996 294.640015 139.199997 77 175 74
138.429993 234.949997 146.160004 77 175 74
148.589996 271.779999 153.119995 77 175 74
215.723663 181.786331 123.781593 55 126 184
236.220001 191.770004 118.320000 228 26 28
187.960007 276.859985 118.320000 228 26 28
273.049988 307.339996 118.320000 228 26 28
279.399994 325.119995 118.320000 228 26 28
313.690002 196.850006 125.279999 228 26 28
186.387894 221.282104 131.412170 55 126 184
196.850006 231.139999 125.279999 152 78 163
256.540009 242.570007 125.279999 228 26 28
237.490005 259.079987 125.279999 228 26 28
267.133942 292.936066 129.861908 228 26 28
228.600006 269.239990 132.240005 228 26 28
189.229996 274.320007 132.240005 152 78 163
232.410004 313.690002 132.240005 228 26 28
246.188828 310.937042 143.711395 228 26 28
265.429993 318.305939 136.991638 228 26 28
247.649994 323.850006 132.240005 228 26 28
210.820007 196.850006 139.199997 255 127 0
185.419998 200.660004 139.199997 77 175 74
179.070007 203.199997 139.199997 77 175 74
326.436829 215.794174 147.587738 228 26 28
299.720001 219.710007 139.199997 228 26 28
250.628326 236.220001 147.863861 228 26 28
184.149994 245.110001 139.199997 255 127 0
167.639999 246.380005 139.199997 77 175 74
243.839996 251.460007 139.199997 228 26 28
242.570007 271.779999 139.199997 228 26 28
224.789993 279.399994 139.199997 55 126 184
181.610001 299.720001 139.199997 255 127 0
199.389999 193.039993 146.160004 77 175 74
191.770004 200.660004 146.160004 77 175 74
256.540009 207.009995 146.160004 228 26 28
227.330002 218.440002 146.160004 152 78 163
269.239990 219.710007 146.160004 152 78 163
237.490005 236.220001 146.160004 152 78 163
243.839996 242.570007 146.160004 152 78 163
228.600006 245.110001 146.160004 255 127 0
251.460007 246.380005 146.160004 228 26 28
309.880005 250.190002 146.160004 228 26 28
251.527267 271.803070 159.400482 228 26 28
243.839996 298.450012 146.160004 228 26 28
172.720001 307.339996 146.160004 77 175 74
194.309998 308.609985 146.160004 77 175 74
186.690002 186.690002 153.119995 255 127 0
245.110001 215.899994 153.119995 55 126 184
190.500000 220.979996 153.119995 255 127 0
186.690002 231.139999 153.119995 255 127 0
247.649994 265.429993 153.119995 152 78 163
170.179993 275.589996 153.119995 152 78 163
314.959991 292.100006 153.119995 55 126 184
193.039993 299.720001 153.119995 55 126 184
229.869995 261.619995 160.080002 255 127 0
258.539398 297.909393 165.041351 255 127 0
248.919998 269.239990 167.039993 255 127 0
243.839996 274.320007 167.039993 255 127 0
242.570007 281.940002 167.039993 255 127 0
201.929993 322.579987 180.960007 77 175 74
248.919998 237.490005 187.919998 77 175 74
220.979996 250.190002 194.880005 55 126 184
320.040009 288.290009 194.880005 152 78 163
287.019989 300.989990 194.880005 228 26 28
285.750000 309.880005 194.880005 228 26 28
274.320007 224.789993 215.759995 228 26 28
274.320007 292.100006 222.720001 228 26 28
365.760010 163.830002 118.320000 152 78 163
384.809998 167.639999 118.320000 55 126 184
420.369995 173.990005 118.320000 255 127 0
408.940002 196.850006 118.320000 55 126 184
351.790009 201.929993 118.320000 152 78 163
440.112152 206.394043 121.904381 152 78 163
330.200012 215.899994 118.320000 228 26 28
351.790009 248.981430 121.968315 228 26 28
401.320007 248.919998 118.320000 55 126 184
417.829987 289.559998 118.320000 255 127 0
463.549988 298.450012 118.320000 255 127 0
474.980011 307.339996 118.320000 55 126 184
359.410004 190.500000 125.279999 55 126 184
453.390015 275.589996 125.279999 55 126 184
358.140015 163.830002 132.240005 255 127 0
391.160004 166.369995 132.240005 255 127 0
419.100006 177.800003 132.240005 255 127 0
370.839996 186.690002 132.240005 55 126 184
345.440002 198.119995 132.240005 152 78 163
358.140015 219.710007 132.240005 152 78 163
449.579987 220.979996 132.240005 152 78 163
347.980011 271.779999 132.240005 152 78 163
478.790009 285.750000 132.240005 152 78 163
337.820007 288.290009 132.240005 228 26 28
334.010010 297.179993 132.240005 228 26 28
342.899994 317.500000 132.240005 228 26 28
334.702148 327.736176 135.824387 228 26 28
377.190002 166.369995 139.199997 152 78 163
389.890015 180.339996 139.199997 255 127 0
420.369995 193.039993 139.199997 55 126 184
353.059998 201.929993 139.199997 152 78 163
343.723145 206.232040 148.776840 228 26 28
332.739990 232.410004 139.199997 152 78 163
438.149994 234.949997 139.199997 152 78 163
410.209991 264.160004 139.199997 152 78 163
412.750000 294.640015 139.199997 152 78 163
343.581421 305.295746 142.934387 152 78 163
398.779999 308.609985 139.199997 228 26 28
327.660004 185.419998 146.160004 152 78 163
387.350006 205.740005 146.160004 55 126 184
397.510010 242.570007 146.160004 255 127 0
394.970001 267.970001 146.160004 152 78 163
342.899994 271.779999 146.160004 152 78 163
403.859985 273.049988 146.160004 152 78 163
445.769989 281.940002 146.160004 55 126 184
393.700012 163.830002 153.119995 255 127 0
382.269989 173.990005 153.119995 55 126 184
356.869995 246.380005 167.039993 255 127 0
358.140015 236.220001 174.000000 77 175 74
443.230011 309.880005 180.960007 77 175 74
364.489990 285.750000 208.800003 152 78 163
340.359985 321.309998 215.759995 228 26 28
360.679993 318.769989 222.720001 152 78 163
513.080017 307.339996 118.320000 255 127 0
520.700012 297.179993 132.240005 77 175 74
142.240005 327.660004 139.199997 77 175 74
114.330238 393.019653 142.762848 77 175 74
148.589996 331.470001 146.160004 77 175 74
162.559998 334.010010 146.160004 77 175 74
138.055725 378.274597 160.456223 77 175 74
99.059998 466.089996 153.119995 77 175 74
129.539993 486.410004 153.119995 77 175 74
156.679077 357.339081 164.469330 77 175 74
128.016144 389.436188 167.485168 77 175 74
140.970001 397.510010 160.080002 77 175 74
146.050003 356.869995 167.039993 77 175 74
130.474335 390.457184 177.851700 77 175 74
154.940002 425.450012 167.039993 77 175 74
135.889999 434.339996 167.039993 255 127 0
132.080002 448.309998 167.039993 255 127 0
147.320007 384.809998 174.000000 77 175 74
152.399994 421.640015 180.960007 77 175 74
157.895966 387.765961 199.560364 255 127 0
138.732010 405.432007 214.104935 255 127 0
138.429993 416.559998 208.800003 255 127 0
139.699997 396.239990 222.720001 255 127 0
318.769989 364.489990 118.320000 228 26 28
307.339996 365.760010 118.320000 228 26 28
255.270004 383.540009 118.320000 152 78 163
316.836548 393.036530 123.462021 228 26 28
313.690002 400.049988 118.320000 228 26 28
264.160004 405.130005 118.320000 228 26 28
204.470001 412.750000 118.320000 77 175 74
210.820007 438.149994 118.320000 77 175 74
325.119995 447.040009 118.320000 152 78 163
175.228363 463.413666 127.065651 77 175 74
182.880005 480.059998 118.320000 255 127 0
298.450012 332.739990 125.279999 228 26 28
214.630005 353.059998 125.279999 228 26 28
320.040009 379.730011 125.279999 228 26 28
292.100006 401.320007 125.279999 152 78 163
214.630005 414.019989 125.279999 77 175 74
172.720001 419.100006 125.279999 77 175 74
217.169998 440.690002 125.279999 255 127 0
187.505035 463.910065 129.746613 255 127 0
252.729996 363.220001 132.240005 152 78 163
321.309998 387.350006 132.240005 152 78 163
205.740005 394.970001 132.240005 152 78 163
318.769989 397.510010 132.240005 55 126 184
204.470001 426.720001 132.240005 55 126 184
172.348709 342.253265 148.063477 55 126 184
266.700012 359.410004 139.199997 55 126 184
207.009995 363.220001 139.199997 55 126 184
211.739227 372.569000 146.750778 55 126 184
167.639999 374.649994 139.199997 55 126 184
321.309998 379.111694 142.771561 55 126 184
212.089996 402.589996 139.199997 55 126 184
295.910004 402.589996 139.199997 255 127 0
187.501724 415.983917 143.002853 255 127 0
212.089996 425.450012 139.199997 255 127 0
288.290009 439.420013 139.199997 55 126 184
285.750000 452.119995 139.199997 55 126 184
283.209991 467.359985 139.199997 55 126 184
219.710007 332.739990 146.160004 55 126 184
252.729996 332.739990 146.160004 152 78 163
253.408707 353.722778 156.578323 152 78 163
163.830002 359.410004 146.160004 152 78 163
288.290009 384.809998 146.160004 152 78 163
314.959991 433.070007 146.160004 152 78 163
265.336151 335.186157 157.588547 55 126 184
209.550003 363.220001 153.119995 55 126 184
278.949951 420.523682 164.122330 255 127 0
170.179993 466.089996 153.119995 77 175 74
269.239990 473.709991 153.119995 77 175 74
173.990005 417.829987 160.080002 77 175 74
165.100006 354.329987 167.039993 255 127 0
325.119995 379.730011 167.039993 55 126 184
232.410004 381.000000 167.039993 55 126 184
165.100006 388.619995 167.039993 55 126 184
217.268860 391.616272 171.499420 255 127 0
191.595291 393.700012 173.042542 77 175 74
189.229996 434.339996 167.039993 77 175 74
217.169998 445.769989 167.039993 77 175 74
166.369995 473.709991 167.039993 255 127 0
253.021484 378.168518 181.271255 228 26 28
278.441895 377.923248 180.738098 228 26 28
204.470001 422.910004 174.000000 255 127 0
234.949997 472.440002 174.000000 77 175 74
226.059998 344.170013 180.960007 255 127 0
163.830002 355.600006 180.960007 255 127 0
201.929993 375.920013 180.960007 255 127 0
221.918274 425.724823 186.102020 255 127 0
232.410004 434.339996 180.960007 255 127 0
302.894989 435.609985 184.440002 255 127 0
251.128143 468.630005 185.349335 77 175 74
171.449997 369.570007 187.919998 77 175 74
323.850006 419.100006 187.919998 152 78 163
270.510010 359.410004 194.880005 228 26 28
241.300003 363.220001 194.880005 228 26 28
316.230011 436.880005 194.880005 55 126 184
229.869995 439.420013 194.880005 255 127 0
229.869995 459.739990 194.880005 77 175 74
168.910004 386.079987 201.839996 77 175 74
212.089996 467.359985 201.839996 255 127 0
307.339996 406.399994 208.800003 152 78 163
302.817322 430.726410 216.098404 152 78 163
307.339996 455.929993 208.800003 55 126 184
224.382141 462.687866 213.524796 77 175 74
196.850006 466.089996 215.759995 77 175 74
209.550003 466.089996 215.759995 255 127 0
287.019989 377.190002 222.720001 152 78 163
207.009995 386.079987 222.720001 152 78 163
255.270004 394.970001 222.720001 55 126 184
200.660004 406.399994 222.720001 255 127 0
166.369995 411.480011 222.720001 77 175 74
175.259995 422.910004 222.720001 255 127 0
445.769989 327.660004 118.320000 55 126 184
435.609985 345.440002 118.320000 55 126 184
472.440002 353.059998 118.320000 55 126 184
450.850006 364.489990 118.320000 55 126 184
486.410004 369.570007 118.320000 55 126 184
439.420013 434.339996 118.320000 55 126 184
349.250000 457.200012 118.320000 55 126 184
486.410004 464.820007 121.900368 55 126 184
431.799988 478.790009 118.320000 255 127 0
429.260010 345.440002 125.279999 55 126 184
483.869995 360.679993 125.279999 55 126 184
394.970001 361.950012 125.279999 55 126 184
434.855011 380.325012 128.979172 55 126 184
487.425812 397.942413 134.815475 255 127 0
443.230011 400.049988 125.279999 255 127 0
477.519989 401.320007 125.279999 255 127 0
331.470001 406.399994 125.279999 55 126 184
387.350006 412.750000 125.279999 55 126 184
487.679993 415.290009 125.279999 55 126 184
359.155121 461.010010 129.454376 55 126 184
471.170013 472.440002 125.279999 255 127 0
458.470001 370.839996 132.240005 255 127 0
424.179993 388.619995 132.240005 255 127 0
326.390015 462.279999 132.240005 255 127 0
397.484039 344.401367 147.164658 55 126 184
481.329987 359.410004 139.199997 255 127 0
450.850006 379.730011 139.199997 255 127 0
463.549988 386.079987 139.199997 255 127 0
369.570007 387.350006 139.199997 255 127 0
410.209991 389.890015 139.199997 255 127 0
416.559998 398.779999 139.199997 255 127 0
386.079987 416.559998 139.199997 77 175 74
425.450012 438.149994 139.199997 255 127 0
447.040009 445.803711 142.726196 255 127 0
405.130005 483.869995 139.199997 255 127 0
364.489990 393.700012 146.160004 255 127 0
375.920013 397.510010 146.160004 55 126 184
368.299988 461.010010 146.160004 55 126 184
401.474976 327.638916 166.306198 152 78 163
377.190002 335.279999 153.119995 152 78 163
394.970001 355.600006 153.119995 152 78 163
346.709991 358.953308 156.925720 152 78 163
367.646118 389.273895 158.391739 55 126 184
476.250000 401.320007 153.119995 55 126 184
484.627167 405.899261 158.674744 255 127 0
416.559998 422.910004 153.119995 255 127 0
371.163727 342.840057 166.860504 255 127 0
356.477142 390.282837 164.887100 255 127 0
461.010010 407.670013 160.080002 255 127 0
476.250000 411.480011 160.080002 255 127 0
392.429993 365.760010 167.039993 255 127 0
427.989990 374.649994 167.039993 255 127 0
330.200012 385.559448 171.546799 55 126 184
347.714111 395.210846 173.862808 55 126 184
467.565155 436.321899 182.436539 55 126 184
372.109985 462.279999 174.000000 255 127 0
448.309998 466.089996 174.000000 77 175 74
425.450012 330.200012 180.960007 77 175 74
415.290009 341.630005 180.960007 77 175 74
461.010010 389.890015 180.960007 255 127 0
354.329987 394.970001 180.960007 255 127 0
400.049988 400.049988 180.960007 255 127 0
445.769989 421.640015 180.960007 77 175 74
455.929993 454.660004 180.960007 77 175 74
466.089996 472.440002 180.960007 77 175 74
469.899994 336.549988 187.919998 77 175 74
451.693970 338.983368 193.982758 77 175 74
474.980011 364.489990 187.919998 255 127 0
443.230011 398.779999 187.919998 255 127 0
354.329987 410.209991 187.919998 255 127 0
375.920013 436.880005 187.919998 55 126 184
354.329987 353.059998 194.880005 152 78 163
331.470001 369.570007 194.880005 152 78 163
422.910004 400.049988 194.880005 255 127 0
419.100006 417.829987 194.880005 77 175 74
408.788086 420.779022 202.128174 77 175 74
386.079987 430.529999 194.880005 77 175 74
426.897156 436.348541 200.869156 77 175 74
439.210938 438.225342 202.539368 77 175 74
426.445923 437.702209 200.338013 77 175 74
327.742096 444.957275 203.842087 77 175 74
416.559998 448.309998 194.880005 77 175 74
400.403168 458.646576 205.896805 255 127 0
453.027161 336.912842 206.811539 255 127 0
359.760834 343.819153 212.424240 55 126 184
386.079987 370.839996 201.839996 55 126 184
405.130005 378.459991 201.839996 55 126 184
344.170013 407.670013 201.839996 255 127 0
452.119995 414.019989 201.839996 255 127 0
467.359985 468.630005 201.839996 77 175 74
330.200012 469.899994 201.839996 77 175 74
389.890015 427.355011 212.279999 77 175 74
327.660004 443.230011 208.800003 77 175 74
422.910004 449.579987 208.800003 77 175 74
415.290009 454.660004 208.800003 77 175 74
369.570007 472.440002 208.800003 77 175 74
401.320007 370.839996 215.759995 77 175 74
393.700012 391.160004 215.759995 255 127 0
381.000000 463.549988 215.759995 55 126 184
344.170013 393.700012 222.720001 55 126 184
438.149994 426.720001 222.720001 255 127 0
501.649994 469.899994 118.320000 255 127 0
515.619995 471.170013 118.320000 255 127 0
509.269989 360.679993 132.240005 77 175 74
522.295898 476.250000 136.284607 255 127 0
501.649994 386.079987 146.160004 255 127 0
517.532288 387.828064 150.500015 255 127 0
585.469971 468.630005 153.119995 255 127 0
491.489990 360.679993 180.960007 255 127 0
492.760010 420.369995 180.960007 55 126 184
504.190002 463.549988 180.960007 255 127 0
527.049988 381.000000 187.919998 255 127 0
82.550003 488.950012 153.119995 77 175 74
118.110001 505.459991 153.119995 77 175 74
92.709999 513.080017 153.119995 255 127 0
236.220001 533.400024 118.320000 255 127 0
189.229996 488.950012 125.279999 255 127 0
213.360001 496.570007 125.279999 77 175 74
254.000000 502.920013 125.279999 77 175 74
163.830002 500.380005 132.240005 77 175 74
242.570007 502.920013 146.160004 77 175 74
220.979996 543.559998 146.160004 77 175 74
284.480011 496.570007 153.119995 77 175 74
262.890015 514.349976 153.119995 77 175 74
223.520004 532.130005 153.119995 77 175 74
175.259995 535.940002 153.119995 77 175 74
228.997849 488.077850 213.579636 77 175 74
378.459991 504.190002 118.320000 77 175 74
411.480011 509.269989 118.320000 77 175 74
469.899994 525.780029 125.279999 77 175 74
416.559998 496.570007 146.160004 77 175 74
487.679993 490.220001 153.119995 77 175 74
262.890015 300.989990 236.639999 55 126 184
264.160004 320.040009 236.639999 152 78 163
364.489990 306.070007 229.679993 152 78 163
359.410004 246.380005 236.639999 152 78 163
350.519989 273.049988 236.639999 55 126 184
384.809998 307.339996 250.559998 55 126 184
144.779999 358.140015 243.600006 55 126 184
311.149994 417.829987 229.679993 55 126 184
218.440002 415.290009 236.639999 55 126 184
200.660004 370.839996 243.600006 55 126 184
275.824432 479.825592 249.275299 55 126 184
297.179993 485.140015 243.600006 55 126 184
212.089996 353.059998 250.559998 55 126 184
210.820007 361.950012 250.559998 55 126 184
213.360001 374.649994 250.559998 152 78 163
297.179993 416.559998 250.559998 152 78 163
267.970001 439.420013 250.559998 152 78 163
313.690002 469.899994 250.559998 55 126 184
405.130005 387.350006 229.679993 255 127 0
473.709991 328.929993 236.639999 255 127 0
372.109985 416.559998 236.639999 255 127 0
392.429993 416.559998 236.639999 255 127 0
439.420013 449.129852 242.476715 255 127 0
463.549988 336.549988 250.559998 255 127 0
425.450012 419.100006 250.559998 255 127 0
339.089996 424.179993 250.559998 255 127 0
363.220001 443.230011 250.559998 255 127 0
472.440002 453.390015 250.559998 255 127 0
213.360001 490.220001 250.559998 255 127 0
481.329987 334.010010 243.600006 255 127 0
440.690002 184.149994 104.400002 255 127 0
504.190002 248.919998 48.720001 255 127 0
370.839996 355.600006 83.519997 55 126 184
147.320007 537.210022 34.799999 255 127 0
104.139999 298.450012 125.279999 77 175 74
214.630005 182.880005 125.279999 77 175 74
167.639999 294.640015 139.199997 255 127 0
233.679993 238.759995 201.839996 55 126 184
361.950012 280.670013 132.240005 55 126 184
116.839996 394.970001 118.320000 255 127 0
101.599998 454.660004 125.279999 77 175 74
97.790001 477.519989 125.279999 77 175 74
111.760002 400.049988 132.240005 77 175 74
146.050003 448.309998 160.080002 77 175 74
172.085007 342.899994 149.639999 255 127 0
440.690002 375.920013 118.320000 152 78 163
327.660004 332.739990 132.240005 228 26 28
336.549988 331.809631 143.610657 152 78 163
359.410004 429.260010 187.919998 55 126 184
227.330002 265.429993 243.600006 55 126 184
346.709991 309.880005 229.679993 152 78 163
210.820007 412.750000 236.639999 255 127 0
195.580002 101.599998 76.559998 77 175 74
176.529999 106.680000 83.519997 77 175 74
226.059998 138.429993 97.440002 77 175 74
370.839996 119.379997 76.559998 255 127 0
386.904816 150.817062 100.647438 255 127 0
401.320007 134.619995 104.400002 255 127 0
381.000000 162.559998 104.400002 255 127 0
139.699997 232.410004 34.799999 77 175 74
170.179993 199.389999 48.720001 255 127 0
206.807800 294.640015 65.415611 152 78 163
193.039993 196.850006 62.639999 55 126 184
194.441315 249.155426 71.609863 55 126 184
220.979996 271.779999 62.639999 152 78 163
194.309998 171.449997 76.559998 152 78 163
207.009995 185.419998 76.559998 55 126 184
213.360001 181.610001 83.519997 55 126 184
217.169998 209.550003 97.440002 152 78 163
240.029999 229.869995 104.400002 228 26 28
233.679993 287.019989 104.400002 152 78 163
459.739990 325.119995 13.920000 77 175 74
386.079987 311.149994 34.799999 77 175 74
391.160004 256.540009 66.120003 255 127 0
477.519989 260.350006 76.559998 255 127 0
345.440002 214.630005 83.519997 77 175 74
462.279999 261.619995 90.480003 55 126 184
485.140015 276.859985 90.480003 152 78 163
454.660004 317.500000 97.440002 255 127 0
450.850006 223.520004 108.291039 55 126 184
329.684875 297.557434 109.291534 228 26 28
502.128204 242.465454 38.566452 55 126 184
495.299988 307.339996 66.120003 77 175 74
502.920013 257.809998 104.400002 77 175 74
85.089996 462.279999 62.639999 77 175 74
142.917297 369.570007 115.071808 77 175 74
107.949997 469.899994 111.360001 77 175 74
117.675255 484.270508 115.937462 77 175 74
162.306427 482.557922 119.830849 77 175 74
105.410004 483.869995 111.360001 77 175 74
240.029999 486.410004 13.920000 77 175 74
233.679993 468.630005 34.799999 255 127 0
203.199997 485.140015 34.799999 55 126 184
240.029999 382.269989 41.759998 152 78 163
226.059998 392.429993 97.440002 152 78 163
325.071259 434.719330 106.977440 228 26 28
279.399994 327.660004 104.400002 228 26 28
220.979996 363.220001 104.400002 55 126 184
212.089996 444.500000 104.400002 77 175 74
430.529999 382.269989 97.440002 255 127 0
450.850006 406.399994 97.440002 255 127 0
427.989990 421.640015 104.400002 255 127 0
355.600006 347.980011 111.360001 152 78 163
458.470001 405.130005 111.360001 55 126 184
543.559998 372.109985 6.960000 77 175 74
524.510010 375.920013 6.960000 77 175 74
514.349976 387.350006 6.960000 77 175 74
135.889999 574.039978 6.960000 77 175 74
76.199997 504.190002 62.639999 77 175 74
113.029999 495.299988 76.559998 77 175 74
151.130005 516.890015 97.440002 77 175 74
189.229996 494.029999 6.960000 255 127 0
180.172455 494.581238 24.819098 255 127 0
232.410004 513.080017 20.879999 55 126 184
289.559998 494.029999 90.480003 152 78 163
170.777908 496.570007 94.163246 55 126 184
403.859985 499.109985 41.759998 55 126 184
453.390015 504.190002 90.480003 55 126 184
299.720001 80.010002 132.240005 77 175 74
283.209991 91.440002 146.160004 77 175 74
322.579987 99.059998 153.119995 255 127 0
210.820007 123.190002 153.119995 255 127 0
316.230011 156.210007 153.119995 55 126 184
410.209991 154.940002 125.279999 55 126 184
373.380005 162.559998 125.279999 255 127 0
364.489990 157.479996 146.160004 255 127 0
161.289993 187.960007 125.279999 77 175 74
143.509995 191.770004 132.240005 77 175 74
156.210007 240.029999 139.199997 77 175 74
311.149994 285.750000 118.320000 228 26 28
246.380005 181.610001 125.279999 228 26 28
248.919998 213.360001 125.279999 228 26 28
302.260010 298.450012 125.279999 228 26 28
210.506775 234.949997 136.307800 228 26 28
