ply
format ascii 1.0
element vertex 1099
property float x
property float y
property float z
property uchar red
property uchar green
property uchar blue
end_header
392.429993 523.239990 265.589996 228 26 28
401.320007 523.239990 265.589996 228 26 28
354.329987 528.320007 265.589996 228 26 28
442.487305 530.658386 275.018097 228 26 28
391.160004 544.830017 265.589996 228 26 28
406.313812 554.537964 269.975952 228 26 28
387.350006 557.530029 265.589996 228 26 28
451.129333 558.280762 273.650879 228 26 28
447.040009 567.690002 265.589996 228 26 28
398.193054 575.117798 269.252686 228 26 28
400.049988 591.820007 269.286469 228 26 28
436.283844 602.653870 269.203339 228 26 28
361.950012 488.950012 272.399994 228 26 28
440.135468 490.774506 276.236542 228 26 28
342.899994 492.760010 272.399994 228 26 28
364.489990 497.839996 272.399994 228 26 28
374.649994 497.839996 272.399994 228 26 28
422.910004 508.000000 272.399994 228 26 28
351.790009 518.159973 272.399994 228 26 28
429.243256 524.081055 276.910065 228 26 28
336.549988 529.590027 272.399994 228 26 28
426.720001 530.859985 272.399994 228 26 28
450.850006 533.400024 272.399994 228 26 28
353.059998 535.940002 272.399994 228 26 28
409.836273 535.417480 277.205994 228 26 28
366.382446 543.469666 281.053741 228 26 28
418.557861 545.373901 278.608978 228 26 28
426.720001 559.361938 276.196930 228 26 28
364.489990 561.340027 272.399994 228 26 28
383.540009 567.690002 272.399994 228 26 28
419.100006 568.679688 276.556610 228 26 28
463.549988 580.390015 272.399994 228 26 28
422.721161 587.635742 280.213470 152 78 163
383.540009 619.760010 272.399994 152 78 163
487.679993 519.429993 279.209991 55 126 184
389.890015 524.510010 279.209991 228 26 28
371.565094 524.118896 288.123047 228 26 28
464.820007 525.780029 279.209991 228 26 28
345.440002 528.320007 279.209991 228 26 28
358.672211 534.137756 283.166107 228 26 28
341.630005 543.559998 279.209991 228 26 28
406.399994 543.559998 279.209991 228 26 28
365.760010 551.179993 279.209991 228 26 28
452.767059 560.717041 282.679657 228 26 28
347.980011 563.880005 279.209991 55 126 184
469.899994 577.849976 279.209991 152 78 163
443.230011 580.390015 279.209991 55 126 184
344.053009 489.857544 294.360260 55 126 184
428.833618 491.916382 289.797882 55 126 184
344.170013 501.649994 286.019989 228 26 28
401.320007 507.043304 295.526184 228 26 28
375.511200 510.540009 289.829285 228 26 28
405.130005 514.349976 286.019989 55 126 184
367.029999 543.559998 286.019989 55 126 184
420.369995 547.369995 286.019989 55 126 184
387.428101 547.955383 295.651215 55 126 184
373.380005 551.179993 286.019989 55 126 184
354.329987 553.719971 286.019989 55 126 184
410.209991 567.690002 286.019989 55 126 184
422.910004 585.469971 286.019989 55 126 184
387.350006 496.570007 292.829987 228 26 28
337.820007 497.839996 292.829987 228 26 28
455.929993 505.459991 292.829987 228 26 28
416.060181 505.599579 301.655273 55 126 184
384.809998 513.080017 292.829987 152 78 163
449.579987 514.349976 292.829987 55 126 184
483.869995 516.890015 292.829987 228 26 28
394.970001 533.400024 292.829987 228 26 28
402.589996 551.179993 292.829987 228 26 28
455.929993 567.690002 292.829987 55 126 184
433.070007 580.390015 292.829987 152 78 163
410.209991 494.029999 299.640015 152 78 163
372.109985 500.380005 299.640015 152 78 163
401.954987 507.364990 303.045013 152 78 163
424.179993 510.540009 299.640015 152 78 163
370.981842 527.614075 303.425262 152 78 163
456.785400 538.065430 304.226868 152 78 163
341.630005 490.220001 306.450012 152 78 163
391.160004 492.760010 306.450012 152 78 163
381.000000 504.190002 306.450012 152 78 163
416.559998 504.190002 306.450012 152 78 163
470.634064 508.535950 310.386200 152 78 163
567.690002 505.459991 224.729996 228 26 28
537.210022 509.269989 224.729996 77 175 74
568.960022 535.940002 224.729996 228 26 28
503.783173 537.210022 229.358505 228 26 28
523.842285 555.967285 234.216202 228 26 28
508.888916 567.391724 232.369171 228 26 28
509.269989 574.039978 224.729996 77 175 74
523.239990 496.570007 231.539993 77 175 74
596.900024 499.109985 231.539993 77 175 74
499.109985 504.190002 231.539993 228 26 28
504.190002 508.000000 231.539993 228 26 28
528.320007 509.269989 231.539993 228 26 28
521.969971 534.669983 231.539993 228 26 28
528.320007 538.479980 231.539993 228 26 28
532.130005 548.640015 231.539993 228 26 28
505.588501 557.178772 240.221863 228 26 28
523.239990 574.039978 231.539993 228 26 28
611.647949 502.920013 242.521515 77 175 74
513.727173 513.627014 246.612595 77 175 74
544.830017 515.619995 238.350006 77 175 74
589.280029 521.969971 238.350006 77 175 74
518.159973 525.780029 238.350006 228 26 28
570.670654 531.025879 249.301804 228 26 28
525.780029 557.530029 238.350006 228 26 28
537.210022 563.880005 238.350006 228 26 28
604.520020 490.220001 245.160004 77 175 74
604.520020 501.649994 245.160004 77 175 74
499.109985 511.809998 245.160004 77 175 74
560.235535 521.293640 248.786896 228 26 28
503.638184 535.442932 254.635376 228 26 28
495.299988 549.909973 245.160004 228 26 28
527.292542 551.179993 249.215347 228 26 28
580.390015 560.070007 245.160004 228 26 28
513.652954 570.286255 254.949417 228 26 28
519.429993 580.390015 245.160004 228 26 28
492.760010 586.739990 245.160004 228 26 28
530.859985 499.109985 251.970001 228 26 28
595.237488 509.269989 255.808365 228 26 28
515.619995 514.349976 251.970001 228 26 28
495.299988 590.128845 255.939590 228 26 28
539.750000 497.839996 258.779999 228 26 28
556.260010 500.380005 258.779999 228 26 28
505.691803 518.679077 262.806519 228 26 28
525.780029 542.289978 258.779999 228 26 28
513.080017 556.260010 258.779999 228 26 28
494.029999 610.869995 258.779999 228 26 28
495.454041 490.220001 269.407990 55 126 184
527.049988 519.429993 265.589996 55 126 184
542.289978 535.940002 265.589996 55 126 184
547.369995 491.489990 272.399994 55 126 184
537.210022 525.780029 272.399994 228 26 28
488.950012 542.289978 272.399994 228 26 28
491.489990 581.659973 272.399994 228 26 28
515.619995 492.760010 279.209991 228 26 28
492.760010 563.880005 279.209991 55 126 184
491.489990 502.920013 286.019989 55 126 184
541.020020 533.400024 286.019989 55 126 184
501.649994 511.809998 292.829987 228 26 28
228.600006 147.320007 61.290001 228 26 28
215.899994 156.210007 102.150002 228 26 28
96.204964 305.965454 35.485458 228 26 28
140.970001 290.829987 74.910004 77 175 74
208.958252 278.808258 85.356956 77 175 74
193.039993 292.100006 88.529999 77 175 74
173.990005 314.959991 95.339996 77 175 74
419.734985 324.484985 64.695000 77 175 74
391.297729 299.720001 103.298553 77 175 74
427.036530 300.021667 116.881897 77 175 74
87.629997 458.470001 68.099998 77 175 74
108.897728 363.845459 79.991928 77 175 74
147.320007 434.339996 81.306702 77 175 74
86.360001 443.230011 81.720001 77 175 74
88.900002 427.989990 95.339996 77 175 74
190.500000 464.820007 27.240000 152 78 163
270.510010 434.339996 34.049999 152 78 163
281.940002 462.279999 40.860001 55 126 184
199.769745 381.394257 57.612206 228 26 28
220.979996 481.329987 47.669998 55 126 184
269.239990 464.820007 54.480000 152 78 163
223.520004 473.709991 54.480000 228 26 28
228.600006 433.070007 74.910004 77 175 74
290.829987 394.970001 88.529999 77 175 74
252.765945 455.277039 92.031357 77 175 74
245.110001 365.760010 102.150002 77 175 74
177.450882 371.760895 107.087982 77 175 74
486.410004 383.540009 20.430000 55 126 184
417.829987 459.739990 68.099998 77 175 74
396.239990 417.829987 74.910004 77 175 74
392.429993 428.671417 78.563896 77 175 74
455.837097 448.921783 85.249542 77 175 74
397.327240 357.375244 110.980225 228 26 28
471.170013 378.459991 102.150002 228 26 28
475.062317 403.948730 111.514282 228 26 28
521.930176 409.287384 73.260902 228 26 28
516.890015 474.980011 74.910004 228 26 28
508.000000 381.000000 81.720001 228 26 28
113.029999 532.130005 27.240000 55 126 184
92.709999 553.719971 34.049999 55 126 184
73.660004 495.299988 74.910004 228 26 28
506.730011 509.269989 95.339996 228 26 28
251.460007 113.029999 129.389999 228 26 28
180.339996 149.860001 163.440002 228 26 28
373.380005 144.779999 129.389999 228 26 28
149.860001 168.910004 163.440002 77 175 74
140.970001 281.940002 163.440002 228 26 28
85.089996 325.119995 163.440002 228 26 28
91.440002 223.520004 197.490005 55 126 184
149.860001 290.829987 197.490005 152 78 163
119.379997 274.320007 204.300003 152 78 163
139.699997 318.769989 204.300003 152 78 163
158.750000 299.720001 211.110001 55 126 184
227.330002 243.839996 122.580002 77 175 74
241.300003 265.429993 136.199997 77 175 74
252.729996 251.460007 143.009995 77 175 74
240.029999 254.000000 143.009995 77 175 74
179.070007 248.919998 149.820007 77 175 74
292.100006 248.919998 149.820007 77 175 74
281.944153 279.821960 161.177399 228 26 28
214.630005 168.910004 163.440002 152 78 163
175.259995 223.520004 163.440002 228 26 28
205.740005 226.059998 163.440002 77 175 74
204.470001 262.890015 163.440002 152 78 163
298.450012 280.670013 163.440002 77 175 74
232.410004 283.209991 163.440002 77 175 74
236.220001 237.490005 170.250000 152 78 163
248.919998 241.300003 173.654999 152 78 163
222.250000 261.619995 170.250000 152 78 163
248.919998 270.510010 170.250000 152 78 163
262.890015 288.290009 170.250000 152 78 163
269.239990 298.450012 170.250000 152 78 163
207.156174 300.281921 174.046921 152 78 163
185.419998 257.809998 183.869995 228 26 28
249.135712 323.281952 199.521729 55 126 184
177.800003 281.940002 197.490005 152 78 163
175.259995 191.770004 204.300003 152 78 163
238.886765 291.973236 214.854874 152 78 163
250.190002 212.089996 217.919998 152 78 163
220.979996 271.779999 217.919998 152 78 163
274.320007 281.940002 217.919998 152 78 163
240.029999 300.989990 217.919998 152 78 163
425.450012 304.799988 129.389999 228 26 28
408.940002 173.990005 143.009995 77 175 74
422.240021 266.297668 158.787415 228 26 28
411.480011 232.410004 156.630005 228 26 28
347.980011 261.619995 156.630005 228 26 28
414.019989 257.809998 163.440002 228 26 28
454.660004 267.970001 163.440002 55 126 184
397.510010 213.360001 170.250000 152 78 163
471.157135 288.302887 174.766983 152 78 163
422.910004 298.450012 174.797409 152 78 163
387.350006 260.350006 177.059998 152 78 163
438.149994 205.740005 183.869995 152 78 163
369.570007 285.750000 183.869995 152 78 163
379.730011 292.100006 190.679993 152 78 163
397.510010 262.100372 208.534195 152 78 163
468.630005 318.769989 207.705002 152 78 163
392.429993 325.119995 204.300003 152 78 163
447.040009 228.600006 211.110001 152 78 163
439.420013 274.320007 211.110001 152 78 163
377.190002 301.410187 219.127762 152 78 163
411.480011 317.500000 211.110001 152 78 163
441.959991 264.160004 217.919998 152 78 163
399.638855 295.135590 227.387466 152 78 163
424.815002 304.165009 221.324997 152 78 163
508.000000 248.919998 163.440002 55 126 184
520.700012 311.149994 163.440002 228 26 28
533.400024 323.850006 177.059998 55 126 184
494.029999 303.529999 183.869995 55 126 184
556.260010 231.139999 197.490005 152 78 163
491.489990 270.510010 211.110001 152 78 163
515.619995 288.290009 211.110001 55 126 184
10.160000 389.890015 115.769997 228 26 28
69.849998 438.149994 129.389999 77 175 74
111.760002 359.410004 149.820007 77 175 74
46.990002 450.850006 156.630005 228 26 28
86.360001 341.630005 163.440002 228 26 28
160.020004 391.160004 163.440002 228 26 28
74.930000 403.859985 163.440002 77 175 74
107.759346 415.290009 169.227676 77 175 74
59.689999 449.579987 163.440002 77 175 74
38.099998 464.820007 163.440002 55 126 184
97.790001 354.329987 170.250000 152 78 163
106.680000 394.970001 170.250000 228 26 28
160.020004 348.614990 187.274994 55 126 184
123.190002 389.890015 183.869995 152 78 163
121.919998 453.390015 183.869995 152 78 163
80.010002 374.649994 190.679993 152 78 163
143.509995 374.649994 190.679993 152 78 163
78.739998 393.700012 190.679993 152 78 163
147.320007 417.829987 190.679993 152 78 163
140.970001 355.600006 197.490005 152 78 163
151.130005 393.700012 197.490005 152 78 163
128.270004 405.130005 197.490005 152 78 163
107.949997 327.660004 204.300003 152 78 163
77.470001 369.570007 204.300003 152 78 163
92.709999 387.350006 204.300003 152 78 163
67.309998 397.510010 204.300003 152 78 163
64.769997 434.339996 204.300003 152 78 163
63.500000 414.019989 211.110001 152 78 163
135.889999 414.019989 211.110001 55 126 184
123.190002 487.679993 211.110001 55 126 184
104.139999 334.010010 217.919998 55 126 184
157.479996 351.790009 217.919998 152 78 163
146.050003 414.019989 217.919998 55 126 184
152.576660 453.872223 222.144241 228 26 28
266.700012 373.380005 115.769997 77 175 74
236.220001 450.850006 115.769997 77 175 74
220.037170 445.298584 133.672165 77 175 74
254.000000 411.480011 151.399200 77 175 74
194.309998 421.640015 143.009995 77 175 74
238.759995 336.549988 149.820007 77 175 74
295.910004 383.540009 149.820007 77 175 74
196.850006 331.470001 163.440002 77 175 74
217.169998 353.059998 163.440002 152 78 163
246.380005 363.220001 170.250000 152 78 163
215.899994 370.839996 170.250000 152 78 163
212.650665 415.544342 178.702652 152 78 163
240.029999 351.790009 177.059998 152 78 163
227.330002 360.679993 177.059998 152 78 163
254.000000 365.760010 177.059998 152 78 163
174.802246 372.109985 181.078644 152 78 163
241.300003 379.730011 177.059998 152 78 163
212.089996 472.440002 177.059998 152 78 163
177.800003 326.390015 190.679993 152 78 163
219.710007 377.190002 190.679993 152 78 163
208.279999 402.589996 190.679993 152 78 163
186.690002 347.980011 197.490005 152 78 163
256.540009 378.459991 197.490005 152 78 163
171.449997 383.540009 197.490005 152 78 163
261.619995 420.369995 197.490005 152 78 163
172.720001 431.799988 197.490005 152 78 163
184.149994 453.390015 197.490005 152 78 163
236.220001 339.089996 211.110001 152 78 163
201.929993 364.489990 211.110001 152 78 163
238.759995 346.709991 217.919998 152 78 163
184.149994 407.670013 217.919998 152 78 163
243.839996 433.070007 217.919998 152 78 163
187.960007 435.609985 217.919998 152 78 163
266.700012 438.149994 217.919998 55 126 184
426.720001 330.200012 115.769997 228 26 28
433.070007 378.459991 115.769997 77 175 74
412.750000 381.000000 115.769997 77 175 74
426.720001 386.079987 115.769997 77 175 74
391.783661 406.399994 138.054825 77 175 74
392.429993 420.369995 129.389999 77 175 74
369.570007 440.690002 129.389999 228 26 28
410.209991 463.549988 143.009995 228 26 28
457.200012 365.760010 149.820007 55 126 184
382.269989 373.380005 149.820007 228 26 28
360.005676 383.076691 158.792816 228 26 28
378.459991 400.049988 149.820007 228 26 28
365.760010 447.040009 149.820007 228 26 28
357.808258 441.628265 161.661209 228 26 28
431.799988 361.950012 163.440002 55 126 184
453.390015 361.950012 163.440002 55 126 184
421.640015 334.010010 170.250000 152 78 163
482.600006 424.179993 170.250000 152 78 163
363.220001 391.160004 177.059998 152 78 163
481.329987 434.339996 177.059998 152 78 163
411.480011 441.959991 180.939972 152 78 163
381.000000 326.390015 183.869995 152 78 163
365.791229 427.989990 187.358719 152 78 163
429.260010 466.089996 183.869995 152 78 163
445.769989 346.709991 190.679993 152 78 163
341.630005 407.670013 190.679993 152 78 163
457.200012 410.209991 190.679993 152 78 163
383.540009 412.750000 190.679993 152 78 163
441.959991 439.420013 190.679993 55 126 184
410.209991 393.700012 197.490005 55 126 184
445.769989 397.510010 197.490005 55 126 184
487.679993 426.720001 197.490005 55 126 184
367.029999 464.246735 201.226074 55 126 184
334.010010 464.820007 197.490005 152 78 163
433.928619 470.722748 201.997940 152 78 163
387.350006 339.089996 204.300003 152 78 163
373.380005 367.029999 204.300003 152 78 163
425.450012 483.869995 204.300003 152 78 163
422.910004 336.549988 211.110001 55 126 184
487.067688 351.177673 214.636581 152 78 163
369.570007 377.190002 211.110001 152 78 163
455.929993 432.288910 215.298447 152 78 163
348.077698 446.356140 219.729080 152 78 163
422.910004 468.630005 211.110001 152 78 163
473.709991 339.089996 217.919998 152 78 163
407.670013 417.829987 217.919998 152 78 163
345.440002 439.420013 217.919998 152 78 163
392.429993 453.390015 217.919998 55 126 184
510.540009 345.440002 163.440002 55 126 184
557.530029 377.190002 163.440002 55 126 184
523.999878 337.570221 174.324692 55 126 184
562.609985 419.100006 177.059998 55 126 184
538.479980 431.799988 177.059998 228 26 28
529.012024 461.817993 181.392685 228 26 28
520.377380 395.443695 188.139938 228 26 28
614.374817 431.201660 192.251770 55 126 184
534.669983 330.200012 190.679993 55 126 184
491.489990 378.459991 190.679993 55 126 184
509.269989 400.049988 190.679993 55 126 184
515.619995 425.450012 190.679993 55 126 184
523.239990 334.010010 197.490005 55 126 184
523.239990 356.869995 197.490005 55 126 184
549.909973 388.619995 197.490005 55 126 184
546.099976 444.500000 197.490005 228 26 28
552.450012 349.250000 204.300003 228 26 28
595.857605 484.448090 208.010117 228 26 28
510.540009 336.549988 211.110001 228 26 28
572.770020 342.899994 211.110001 55 126 184
506.730011 379.730011 211.110001 55 126 184
496.454712 389.312958 215.443939 228 26 28
104.139999 502.920013 115.769997 228 26 28
92.345177 495.893860 177.223587 228 26 28
35.560001 494.029999 183.869995 55 126 184
150.496277 505.999146 192.637222 152 78 163
54.610001 561.340027 183.869995 152 78 163
64.769997 551.179993 190.679993 55 126 184
120.650002 501.649994 204.300003 55 126 184
52.070000 516.890015 204.300003 55 126 184
140.970001 516.890015 211.110001 55 126 184
60.959999 542.289978 217.919998 55 126 184
176.529999 502.920013 143.009995 55 126 184
198.405807 586.944397 219.695801 152 78 163
256.540009 515.619995 217.919998 152 78 163
471.170013 500.380005 170.250000 55 126 184
421.020111 491.489990 187.356064 55 126 184
386.707184 531.153748 192.468094 55 126 184
367.029999 534.669983 183.869995 55 126 184
450.312256 534.669983 187.796555 55 126 184
379.730011 528.320007 197.490005 55 126 184
455.122498 501.649994 208.630051 55 126 184
427.989990 543.559998 204.300003 55 126 184
417.829987 588.010010 204.300003 55 126 184
444.500000 535.940002 211.110001 55 126 184
372.109985 500.380005 217.919998 55 126 184
473.709991 575.309998 217.919998 55 126 184
551.179993 488.950012 143.009995 55 126 184
499.735626 541.554504 185.791687 228 26 28
591.820007 488.950012 183.869995 228 26 28
511.809998 516.890015 183.869995 228 26 28
527.162048 527.713013 187.425171 228 26 28
579.119995 511.809998 190.679993 228 26 28
552.450012 520.700012 197.490005 228 26 28
508.000000 537.210022 197.490005 228 26 28
528.320007 542.289978 197.490005 228 26 28
587.967957 492.084839 212.863892 228 26 28
568.361206 535.289490 212.798553 228 26 28
558.799988 539.750000 204.300003 228 26 28
528.320007 557.530029 204.300003 77 175 74
603.250000 527.049988 217.919998 228 26 28
146.050003 161.289993 258.779999 152 78 163
107.949997 149.860001 265.589996 152 78 163
133.350006 226.059998 224.729996 152 78 163
128.270004 255.270004 231.539993 152 78 163
71.120003 316.230011 231.539993 152 78 163
106.680000 224.789993 245.160004 152 78 163
109.220001 256.540009 245.160004 55 126 184
152.399994 261.619995 245.160004 55 126 184
157.479996 284.480011 245.160004 55 126 184
124.459999 313.690002 245.160004 55 126 184
82.550003 266.700012 251.970001 55 126 184
143.509995 316.230011 251.970001 55 126 184
101.599998 243.839996 258.779999 55 126 184
137.160004 248.919998 258.779999 55 126 184
137.160004 308.609985 258.779999 55 126 184
157.479996 314.959991 258.779999 55 126 184
151.130005 254.000000 265.589996 55 126 184
156.210007 270.510010 265.589996 55 126 184
139.699997 280.670013 265.589996 152 78 163
143.509995 302.260010 265.589996 152 78 163
105.410004 199.389999 279.209991 152 78 163
156.210007 280.670013 279.209991 152 78 163
109.220001 224.789993 286.019989 152 78 163
97.790001 236.220001 286.019989 152 78 163
114.300003 283.209991 292.829987 152 78 163
128.270004 236.220001 299.640015 152 78 163
127.000000 269.239990 299.640015 152 78 163
129.539993 303.529999 299.640015 152 78 163
96.519997 201.929993 306.450012 152 78 163
139.699997 314.959991 313.260010 152 78 163
226.823639 242.320908 232.536972 152 78 163
207.009995 289.559998 224.729996 152 78 163
247.649994 325.119995 224.729996 152 78 163
227.330002 257.809998 231.539993 152 78 163
251.460007 303.529999 231.539993 152 78 163
214.630005 229.869995 238.350006 152 78 163
257.809998 255.270004 238.350006 152 78 163
168.910004 237.490005 245.160004 152 78 163
180.339996 270.510010 245.160004 152 78 163
200.660004 270.510010 245.160004 152 78 163
213.360001 271.779999 245.160004 152 78 163
285.750000 317.500000 245.160004 152 78 163
205.740005 214.630005 251.970001 152 78 163
220.979996 224.789993 251.970001 152 78 163
194.309998 250.930298 255.939590 152 78 163
261.619995 316.230011 251.970001 152 78 163
273.049988 317.500000 251.970001 152 78 163
242.570007 322.579987 251.970001 152 78 163
179.070007 176.529999 258.779999 152 78 163
196.850006 283.209991 258.779999 152 78 163
187.960007 292.100006 258.779999 152 78 163
238.759995 299.720001 258.779999 152 78 163
179.070007 304.799988 258.779999 152 78 163
204.470001 307.339996 258.779999 152 78 163
226.059998 308.609985 258.779999 152 78 163
182.880005 215.899994 265.589996 152 78 163
213.360001 208.279999 272.399994 152 78 163
176.529999 220.979996 272.399994 152 78 163
191.770004 304.799988 272.399994 152 78 163
234.949997 228.600006 279.209991 152 78 163
163.830002 317.500000 286.019989 152 78 163
191.770004 316.230011 292.829987 152 78 163
181.610001 320.040009 292.829987 152 78 163
218.440002 284.480011 299.640015 152 78 163
177.800003 288.290009 299.640015 152 78 163
227.330002 317.500000 299.640015 152 78 163
196.850006 200.660004 306.450012 152 78 163
212.089996 295.910004 313.260010 152 78 163
224.789993 234.949997 320.070007 152 78 163
185.419998 295.910004 320.070007 152 78 163
436.880005 314.959991 224.729996 152 78 163
422.910004 280.670013 231.539993 152 78 163
440.690002 262.890015 238.350006 152 78 163
355.600006 316.230011 238.350006 152 78 163
468.630005 177.800003 251.970001 152 78 163
467.359985 189.229996 251.970001 152 78 163
387.350006 234.949997 251.970001 152 78 163
439.420013 284.480011 251.970001 152 78 163
403.859985 193.039993 258.779999 152 78 163
415.290009 232.410004 258.779999 152 78 163
457.200012 247.649994 258.779999 152 78 163
466.089996 294.640015 258.779999 152 78 163
477.519989 316.230011 258.779999 152 78 163
445.769989 207.009995 265.589996 152 78 163
430.529999 260.350006 265.589996 152 78 163
400.049988 320.040009 272.399994 152 78 163
440.274872 197.265121 293.283905 152 78 163
487.679993 251.460007 286.019989 152 78 163
478.790009 316.230011 286.019989 152 78 163
462.761414 205.541229 301.736816 152 78 163
417.829987 213.360001 299.640015 152 78 163
468.630005 224.789993 299.640015 152 78 163
416.559998 312.420013 299.640015 152 78 163
396.239990 222.250000 320.070007 152 78 163
421.640015 302.260010 320.070007 152 78 163
490.220001 275.589996 238.350006 152 78 163
500.380005 316.230011 238.350006 55 126 184
514.349976 322.579987 238.350006 55 126 184
490.220001 322.579987 245.160004 55 126 184
561.340027 308.609985 258.779999 55 126 184
519.429993 264.160004 265.589996 55 126 184
513.080017 325.119995 272.399994 55 126 184
497.839996 240.029999 279.209991 55 126 184
492.760010 290.829987 279.209991 55 126 184
490.220001 210.820007 286.019989 55 126 184
508.000000 313.690002 286.019989 55 126 184
520.700012 314.959991 286.019989 55 126 184
506.730011 250.190002 292.829987 55 126 184
496.570007 294.640015 292.829987 55 126 184
134.619995 375.304840 235.051392 55 126 184
74.930000 392.429993 231.539993 55 126 184
160.020004 337.820007 238.350006 55 126 184
107.949997 373.380005 238.350006 55 126 184
162.559998 383.540009 238.350006 55 126 184
149.860001 392.429993 245.160004 55 126 184
102.870003 459.739990 245.160004 55 126 184
123.190002 335.279999 251.970001 55 126 184
121.919998 370.839996 258.779999 55 126 184
125.730003 401.320007 258.779999 55 126 184
123.190002 341.630005 265.589996 55 126 184
148.589996 363.220001 265.589996 55 126 184
142.240005 415.290009 265.589996 55 126 184
133.350006 431.799988 265.589996 55 126 184
152.399994 397.510010 279.209991 55 126 184
161.289993 337.820007 286.019989 55 126 184
83.820000 415.290009 286.019989 55 126 184
101.599998 349.250000 292.829987 152 78 163
219.710007 391.160004 224.729996 152 78 163
207.009995 394.970001 231.539993 152 78 163
281.940002 415.290009 231.539993 152 78 163
175.259995 417.829987 231.539993 152 78 163
237.490005 338.497284 241.981812 152 78 163
271.779999 337.820007 238.350006 152 78 163
198.119995 360.679993 238.350006 152 78 163
242.570007 364.489990 238.350006 55 126 184
210.820007 381.000000 238.350006 55 126 184
247.649994 416.559998 238.350006 55 126 184
262.890015 416.559998 238.350006 55 126 184
274.320007 438.149994 238.350006 55 126 184
167.639999 338.131744 253.641647 55 126 184
172.720001 347.980011 245.160004 55 126 184
220.710159 355.060303 249.288483 55 126 184
254.000000 369.570007 245.160004 55 126 184
173.990005 408.940002 245.160004 55 126 184
200.660004 431.799988 245.160004 55 126 184
246.380005 485.140015 245.160004 55 126 184
182.880005 341.630005 251.970001 55 126 184
295.910004 422.910004 251.970001 55 126 184
205.740005 439.420013 251.970001 55 126 184
254.000000 486.410004 251.970001 55 126 184
278.130005 387.350006 258.779999 55 126 184
254.000000 463.549988 258.779999 55 126 184
217.169998 481.329987 258.779999 55 126 184
181.610001 356.869995 265.589996 55 126 184
208.279999 356.869995 265.589996 55 126 184
222.250000 431.799988 265.589996 55 126 184
254.000000 452.119995 265.589996 55 126 184
243.839996 457.200012 265.589996 55 126 184
287.051636 348.189056 280.789215 55 126 184
236.220001 356.869995 272.399994 55 126 184
208.279999 408.940002 272.399994 55 126 184
200.660004 448.309998 272.399994 55 126 184
177.800003 363.220001 279.209991 55 126 184
265.527588 329.516205 289.686646 55 126 184
289.559998 335.279999 292.829987 55 126 184
176.529999 358.140015 292.829987 55 126 184
210.820007 375.920013 292.829987 55 126 184
234.949997 433.070007 292.829987 55 126 184
196.850006 453.390015 292.829987 55 126 184
215.899994 420.369995 306.450012 55 126 184
198.119995 433.070007 306.450012 55 126 184
191.770004 485.140015 306.450012 55 126 184
170.179993 354.329987 313.260010 55 126 184
245.110001 354.329987 313.260010 55 126 184
199.389999 453.390015 313.260010 152 78 163
190.500000 464.820007 313.260010 152 78 163
208.279999 373.380005 320.070007 152 78 163
426.720001 330.200012 224.729996 152 78 163
422.910004 344.170013 224.729996 152 78 163
394.970001 382.269989 224.729996 152 78 163
476.250000 389.890015 224.729996 55 126 184
365.760010 396.239990 224.729996 55 126 184
431.799988 422.910004 224.729996 55 126 184
469.899994 330.200012 231.539993 55 126 184
441.959991 355.600006 231.539993 55 126 184
458.470001 358.140015 231.539993 55 126 184
424.179993 369.570007 231.539993 55 126 184
332.128815 447.369415 239.861023 55 126 184
459.116486 330.200012 241.816528 55 126 184
445.769989 400.049988 238.350006 55 126 184
340.359985 430.529999 238.350006 55 126 184
486.410004 381.000000 245.160004 55 126 184
412.750000 454.276001 249.594559 55 126 184
363.220001 478.790009 245.160004 55 126 184
378.459991 346.709991 251.970001 55 126 184
481.329987 402.589996 251.970001 55 126 184
389.890015 435.609985 251.970001 55 126 184
375.920013 486.410004 251.970001 55 126 184
402.521698 348.763153 267.834351 55 126 184
336.549988 375.920013 258.779999 55 126 184
426.720001 426.720001 258.779999 55 126 184
349.250000 444.500000 258.779999 55 126 184
431.799988 359.410004 265.589996 55 126 184
384.383850 389.046143 270.114929 55 126 184
417.807037 400.072937 269.056519 55 126 184
471.170013 426.720001 265.589996 55 126 184
401.320007 388.619995 272.399994 55 126 184
450.850006 392.429993 272.399994 55 126 184
393.270386 341.013489 288.823730 55 126 184
374.169983 340.669983 283.446075 55 126 184
411.480011 335.279999 286.019989 55 126 184
387.350006 379.730011 286.019989 55 126 184
457.200012 388.619995 286.019989 55 126 184
434.339996 420.369995 286.019989 55 126 184
429.260010 472.440002 286.019989 55 126 184
436.880005 335.279999 292.829987 55 126 184
479.979004 339.009003 296.452179 55 126 184
358.140015 447.040009 292.829987 55 126 184
412.750000 337.820007 299.640015 152 78 163
337.820007 350.519989 299.640015 152 78 163
335.279999 373.380005 299.640015 152 78 163
368.299988 441.959991 299.640015 55 126 184
405.130005 444.500000 306.450012 55 126 184
416.559998 331.470001 313.260010 152 78 163
402.589996 349.250000 313.260010 152 78 163
416.559998 363.220001 313.260010 152 78 163
449.662750 364.572754 316.886902 55 126 184
373.380005 414.019989 313.260010 55 126 184
425.450012 417.829987 313.260010 55 126 184
340.359985 419.100006 313.260010 152 78 163
354.329987 440.690002 313.260010 77 175 74
466.089996 407.670013 320.070007 152 78 163
530.859985 389.890015 224.729996 228 26 28
579.119995 457.200012 224.729996 228 26 28
552.450012 450.850006 231.539993 228 26 28
542.289978 327.660004 238.350006 228 26 28
488.950012 328.929993 238.350006 55 126 184
529.590027 328.929993 238.350006 55 126 184
505.459991 391.160004 245.160004 228 26 28
500.380005 417.829987 245.160004 228 26 28
530.859985 468.630005 245.160004 228 26 28
577.849976 457.200012 251.970001 228 26 28
581.659973 480.059998 251.970001 228 26 28
494.029999 457.200012 258.779999 228 26 28
492.760010 436.880005 279.209991 228 26 28
542.289978 345.440002 286.019989 228 26 28
524.510010 351.790009 286.019989 228 26 28
508.445404 368.333130 304.239197 228 26 28
149.860001 529.590027 251.970001 228 26 28
156.210007 598.144592 255.443100 55 126 184
133.551483 525.780029 267.477509 55 126 184
146.050003 535.940002 258.779999 228 26 28
151.702988 545.975952 269.327515 228 26 28
116.839996 538.479980 272.399994 228 26 28
166.369995 492.760010 238.350006 55 126 184
256.540009 521.969971 238.350006 55 126 184
182.880005 535.940002 238.350006 55 126 184
218.440002 582.929993 245.160004 55 126 184
261.619995 519.429993 251.970001 55 126 184
225.629990 494.449982 263.337921 55 126 184
285.750000 497.839996 258.779999 55 126 184
238.759995 541.020020 258.779999 55 126 184
214.630005 572.770020 265.589996 55 126 184
190.500000 518.159973 279.209991 228 26 28
171.449997 548.640015 279.209991 228 26 28
265.429993 565.150024 279.209991 55 126 184
212.089996 494.228271 294.178986 55 126 184
337.820007 520.700012 238.350006 55 126 184
424.179993 533.400024 238.350006 228 26 28
470.930023 582.368713 246.913010 228 26 28
414.019989 549.909973 245.160004 228 26 28
386.079987 521.969971 251.970001 228 26 28
350.519989 581.659973 251.970001 228 26 28
396.239990 533.400024 258.779999 228 26 28
419.100006 558.799988 265.589996 228 26 28
347.980011 574.039978 265.589996 228 26 28
373.380005 585.469971 265.589996 228 26 28
377.190002 506.730011 272.399994 55 126 184
463.549988 511.809998 272.399994 228 26 28
353.237244 553.006165 280.396179 228 26 28
407.670013 554.989990 272.399994 228 26 28
373.380005 571.500000 272.399994 228 26 28
384.809998 490.220001 279.209991 228 26 28
420.084930 494.593719 282.997162 228 26 28
353.059998 494.029999 286.019989 228 26 28
365.760010 510.540009 286.019989 228 26 28
427.989990 524.510010 292.829987 55 126 184
360.679993 511.809998 306.450012 55 126 184
588.010010 510.540009 245.160004 228 26 28
547.369995 491.489990 251.970001 77 175 74
552.450012 534.669983 251.970001 228 26 28
491.919006 563.880005 274.700378 228 26 28
542.289978 499.109985 272.399994 228 26 28
504.190002 497.839996 286.019989 228 26 28
492.760010 529.590027 286.019989 228 26 28
234.949997 96.519997 95.339996 228 26 28
412.750000 134.619995 81.720001 228 26 28
119.379997 256.540009 54.480000 228 26 28
106.680000 311.149994 54.480000 77 175 74
114.300003 236.220001 61.290001 77 175 74
151.130005 223.520004 81.720001 77 175 74
135.889999 274.320007 81.720001 77 175 74
135.889999 290.829987 88.529999 77 175 74
154.940002 307.339996 88.529999 77 175 74
144.779999 271.408112 100.155830 77 175 74
80.010002 309.880005 95.339996 77 175 74
111.760002 309.880005 95.339996 77 175 74
150.531143 224.191147 105.748840 77 175 74
123.190002 279.399994 102.150002 77 175 74
124.459999 307.339996 102.150002 77 175 74
151.130005 289.559998 108.959999 77 175 74
199.389999 167.639999 68.099998 228 26 28
224.789993 279.399994 68.099998 77 175 74
180.339996 266.700012 81.720001 77 175 74
170.179993 292.100006 88.529999 77 175 74
183.432938 282.492950 99.185020 77 175 74
179.880661 227.735336 106.786530 77 175 74
467.359985 309.880005 40.860001 228 26 28
476.250000 259.079987 61.290001 228 26 28
448.309998 313.690002 68.099998 77 175 74
392.429993 255.270004 88.529999 77 175 74
403.859985 200.660004 95.339996 77 175 74
452.119995 204.470001 102.150002 77 175 74
463.549988 213.360001 102.150002 77 175 74
607.059998 298.450012 34.049999 228 26 28
541.020020 317.500000 40.860001 228 26 28
504.190002 248.919998 68.099998 228 26 28
491.489990 256.540009 102.150002 228 26 28
115.570000 426.720001 40.860001 228 26 28
117.371979 381.738037 58.437439 77 175 74
132.080002 345.440002 61.290001 77 175 74
7.620000 388.619995 68.099998 77 175 74
148.589996 472.440002 68.099998 77 175 74
66.040001 363.220001 74.910004 77 175 74
60.959999 443.230011 74.910004 77 175 74
87.629997 464.820007 74.910004 77 175 74
142.240005 396.239990 81.720001 77 175 74
76.199997 339.089996 88.529999 77 175 74
101.599998 422.910004 88.529999 77 175 74
140.970001 440.690002 88.529999 77 175 74
105.410004 335.279999 95.339996 77 175 74
121.919998 394.970001 95.339996 77 175 74
135.889999 421.640015 95.339996 77 175 74
121.919998 444.500000 95.339996 77 175 74
162.559998 445.769989 95.339996 77 175 74
57.150002 344.170013 102.150002 77 175 74
115.883858 346.082275 106.396477 77 175 74
90.169998 373.380005 102.150002 77 175 74
136.190750 382.715668 106.152428 77 175 74
68.580002 392.429993 102.150002 77 175 74
245.110001 433.070007 54.480000 77 175 74
215.899994 448.309998 54.480000 77 175 74
208.279999 457.200012 54.480000 77 175 74
295.910004 435.609985 68.099998 77 175 74
184.149994 444.500000 81.720001 77 175 74
237.490005 341.630005 95.339996 77 175 74
165.100006 463.549988 95.339996 77 175 74
242.570007 350.519989 102.150002 77 175 74
208.279999 374.649994 102.150002 77 175 74
194.309998 387.350006 102.150002 77 175 74
177.800003 400.049988 102.150002 77 175 74
182.426880 460.352142 111.475189 228 26 28
443.230011 415.290009 20.430000 152 78 163
482.600006 383.540009 34.049999 152 78 163
464.820007 430.529999 34.049999 228 26 28
465.251312 356.438660 65.059044 228 26 28
464.820007 369.570007 68.099998 77 175 74
482.600006 332.739990 74.910004 77 175 74
433.070007 377.190002 74.910004 77 175 74
469.899994 330.200012 81.720001 77 175 74
467.343445 346.083282 85.169411 77 175 74
450.850006 403.859985 88.529999 77 175 74
378.459991 419.100006 88.529999 77 175 74
384.809998 390.339783 105.886070 77 175 74
534.669983 339.089996 20.430000 77 175 74
542.289978 431.799988 47.669998 228 26 28
532.130005 482.600006 54.480000 228 26 28
517.592712 434.907257 76.430901 228 26 28
524.510010 334.010010 74.910004 228 26 28
494.684601 328.003784 91.101738 55 126 184
521.969971 364.489990 81.720001 228 26 28
515.619995 436.880005 81.720001 228 26 28
524.510010 355.600006 95.339996 77 175 74
505.459991 397.510010 95.339996 228 26 28
535.940002 341.630005 102.150002 228 26 28
537.210022 392.429993 108.959999 55 126 184
569.991760 407.827240 118.363518 152 78 163
116.839996 547.369995 27.240000 152 78 163
137.160004 511.809998 47.669998 228 26 28
68.580002 542.289978 108.959999 77 175 74
219.710007 157.479996 170.250000 228 26 28
194.309998 160.020004 177.059998 152 78 163
134.619995 266.700012 177.059998 152 78 163
129.539993 209.550003 183.869995 152 78 163
149.860001 191.770004 204.300003 152 78 163
150.442047 226.986023 208.627243 152 78 163
147.320007 227.330002 217.919998 152 78 163
152.399994 284.480011 217.919998 152 78 163
135.889999 317.500000 217.919998 55 126 184
204.470001 233.679993 129.389999 77 175 74
226.059998 271.779999 129.389999 77 175 74
172.720001 284.480011 177.059998 152 78 163
236.220001 288.290009 177.059998 152 78 163
180.484604 254.144592 194.278839 152 78 163
223.520004 252.729996 190.679993 152 78 163
205.740005 255.270004 197.490005 152 78 163
218.440002 307.339996 197.490005 152 78 163
184.149994 247.649994 204.300003 152 78 163
201.189713 219.180298 215.079590 152 78 163
229.869995 260.350006 211.110001 152 78 163
168.910004 284.480011 211.110001 55 126 184
420.369995 279.399994 122.580002 77 175 74
429.260010 231.139999 163.440002 77 175 74
441.959991 302.260010 170.250000 55 126 184
425.450012 312.420013 170.250000 152 78 163
453.390015 243.839996 190.679993 152 78 163
407.670013 287.019989 190.679993 152 78 163
483.869995 293.369995 190.679993 152 78 163
401.320007 209.550003 204.300003 152 78 163
487.679993 320.040009 204.300003 152 78 163
435.609985 322.579987 204.300003 152 78 163
427.989990 231.139999 211.110001 152 78 163
436.880005 209.550003 217.919998 152 78 163
455.929993 250.190002 217.919998 152 78 163
494.029999 255.270004 197.490005 152 78 163
487.645996 294.674011 207.796188 55 126 184
557.530029 325.119995 217.919998 228 26 28
136.039444 401.320007 133.195679 228 26 28
85.089996 458.470001 170.250000 55 126 184
105.410004 435.609985 177.059998 152 78 163
85.089996 436.880005 177.059998 152 78 163
102.870003 344.170013 183.869995 152 78 163
147.320007 365.760010 183.869995 152 78 163
111.760002 370.839996 183.869995 152 78 163
151.130005 447.040009 183.869995 152 78 163
91.440002 354.329987 201.054550 55 126 184
154.940002 382.269989 197.490005 55 126 184
58.419998 400.049988 197.490005 55 126 184
142.240005 466.089996 197.490005 55 126 184
120.650002 368.299988 204.300003 55 126 184
156.210007 415.290009 204.300003 152 78 163
96.519997 436.880005 204.300003 152 78 163
147.320007 342.899994 211.110001 152 78 163
100.330002 363.220001 211.110001 152 78 163
147.320007 370.839996 211.110001 152 78 163
135.889999 327.660004 217.919998 55 126 184
116.839996 444.500000 217.919998 228 26 28
267.970001 370.839996 122.580002 228 26 28
256.540009 420.369995 170.250000 55 126 184
190.500000 435.609985 170.250000 152 78 163
177.800003 468.630005 170.250000 152 78 163
167.639999 330.200012 177.059998 152 78 163
179.070007 347.980011 183.869995 152 78 163
194.457962 352.218475 191.667099 152 78 163
249.803864 350.022278 188.609451 152 78 163
243.418045 417.408051 188.417404 152 78 163
214.630005 360.679993 197.490005 152 78 163
259.079987 403.859985 197.490005 152 78 163
177.800003 417.829987 197.490005 152 78 163
269.239990 350.519989 211.110001 152 78 163
189.229996 414.019989 211.110001 152 78 163
190.377792 433.929688 219.897293 152 78 163
224.789993 349.250000 217.919998 152 78 163
279.399994 378.459991 217.919998 152 78 163
245.110001 403.859985 217.919998 152 78 163
220.876221 411.376221 221.603241 152 78 163
424.179993 453.390015 170.250000 152 78 163
361.950012 458.470001 170.250000 152 78 163
423.320007 437.589996 180.867172 55 126 184
410.237610 464.198792 180.539017 55 126 184
454.660004 400.049988 183.869995 55 126 184
471.170013 405.130005 183.869995 55 126 184
398.779999 458.470001 183.869995 55 126 184
483.869995 463.549988 190.679993 55 126 184
417.829987 378.459991 197.490005 55 126 184
479.512207 426.919922 206.692505 55 126 184
422.274994 431.165009 200.895004 55 126 184
361.950012 433.070007 197.490005 55 126 184
416.559998 440.690002 197.490005 55 126 184
349.116577 447.694641 204.804657 152 78 163
441.959991 347.980011 207.705002 152 78 163
373.380005 360.679993 211.110001 152 78 163
339.089996 463.549988 211.110001 152 78 163
454.660004 481.329987 211.110001 152 78 163
379.262115 353.862122 222.221161 55 126 184
483.054016 381.816010 222.295532 55 126 184
467.359985 403.859985 217.919998 55 126 184
393.209473 460.471130 227.619537 55 126 184
404.538910 482.008911 221.560516 55 126 184
414.019989 486.410004 217.919998 55 126 184
560.070007 482.600006 129.389999 55 126 184
535.940002 363.220001 136.199997 55 126 184
572.770020 394.970001 170.250000 55 126 184
501.649994 340.359985 177.059998 55 126 184
529.590027 450.850006 177.059998 228 26 28
543.559998 473.709991 177.059998 228 26 28
518.159973 414.019989 183.869995 228 26 28
540.259705 460.500305 187.946976 228 26 28
516.890015 461.010010 190.679993 228 26 28
539.750000 474.980011 190.679993 228 26 28
585.794983 489.228149 200.436722 228 26 28
528.320007 368.299988 197.490005 228 26 28
513.028503 390.013031 207.375137 228 26 28
572.221313 482.772583 201.357727 228 26 28
506.582520 475.886871 213.273132 228 26 28
586.494141 408.434723 215.210556 228 26 28
488.950012 426.720001 211.110001 228 26 28
554.989990 438.149994 211.110001 228 26 28
551.373474 451.860535 219.534027 228 26 28
568.960022 450.850006 211.110001 228 26 28
509.269989 407.670013 221.507309 228 26 28
530.859985 410.209991 217.919998 228 26 28
543.559998 426.720001 217.919998 228 26 28
43.180000 492.760010 122.580002 228 26 28
45.720001 501.649994 190.679993 228 26 28
110.489998 533.400024 204.300003 228 26 28
94.226685 494.139404 220.468353 55 126 184
44.450001 495.299988 211.110001 55 126 184
107.949997 527.049988 211.110001 55 126 184
124.459999 534.669983 211.110001 55 126 184
157.479996 499.109985 217.919998 55 126 184
212.089996 509.269989 197.490005 55 126 184
201.929993 511.809998 197.490005 55 126 184
166.299484 511.139740 207.894058 55 126 184
190.500000 543.559998 211.110001 55 126 184
167.549377 573.540955 221.567978 55 126 184
449.579987 515.619995 190.679993 55 126 184
409.840790 499.499237 206.311478 55 126 184
388.619995 546.099976 197.490005 55 126 184
356.143188 557.530029 208.197357 55 126 184
449.579987 556.260010 211.110001 55 126 184
502.920013 530.859985 170.250000 55 126 184
516.890015 490.220001 183.869995 55 126 184
500.380005 494.029999 190.679993 228 26 28
528.320007 551.179993 190.679993 228 26 28
500.380005 520.767212 201.075165 228 26 28
508.000000 504.190002 204.300003 228 26 28
581.659973 506.730011 211.110001 77 175 74
575.309998 515.619995 211.110001 77 175 74
524.410522 510.757263 225.741104 228 26 28
482.600006 160.020004 238.350006 152 78 163
453.390015 137.160004 299.640015 152 78 163
144.779999 307.339996 224.729996 152 78 163
160.020004 172.720001 231.539993 152 78 163
156.210007 262.890015 231.539993 152 78 163
118.110001 287.019989 231.539993 152 78 163
90.169998 322.579987 231.539993 152 78 163
134.619995 220.979996 238.350006 152 78 163
49.529999 297.179993 238.350006 152 78 163
92.709999 306.070007 238.350006 152 78 163
125.730003 182.880005 245.160004 152 78 163
119.379997 314.959991 245.160004 55 126 184
158.750000 321.309998 245.160004 55 126 184
111.760002 308.609985 251.970001 55 126 184
152.399994 299.720001 258.779999 55 126 184
124.459999 184.149994 265.589996 55 126 184
162.559998 246.380005 265.589996 55 126 184
151.130005 274.320007 265.589996 55 126 184
151.130005 290.829987 272.399994 55 126 184
143.509995 320.040009 272.399994 55 126 184
137.794998 318.769989 289.424988 152 78 163
151.130005 236.220001 299.640015 152 78 163
157.479996 280.670013 299.640015 152 78 163
139.699997 233.679993 306.450012 152 78 163
160.020004 290.829987 320.070007 152 78 163
198.119995 189.229996 224.729996 152 78 163
224.789993 189.229996 224.729996 152 78 163
170.179993 248.919998 231.539993 152 78 163
210.820007 234.949997 245.160004 152 78 163
184.149994 240.029999 245.160004 152 78 163
198.119995 255.270004 245.160004 152 78 163
256.540009 325.119995 245.160004 152 78 163
168.910004 256.540009 258.779999 152 78 163
184.149994 283.209991 286.019989 152 78 163
209.550003 303.529999 286.019989 152 78 163
173.990005 213.360001 292.829987 152 78 163
175.259995 280.670013 306.450012 152 78 163
288.290009 290.829987 306.450012 152 78 163
243.839996 322.579987 313.260010 152 78 163
166.369995 314.959991 320.070007 152 78 163
461.209595 224.789993 228.670151 152 78 163
415.290009 267.970001 224.729996 152 78 163
434.339996 287.019989 224.729996 152 78 163
434.339996 193.039993 231.539993 152 78 163
440.690002 226.059998 231.539993 152 78 163
473.709991 306.070007 231.539993 152 78 163
452.119995 297.179993 245.160004 152 78 163
416.559998 325.119995 251.970001 152 78 163
447.040009 237.490005 258.779999 152 78 163
455.929993 278.130005 258.779999 152 78 163
395.656433 283.107147 262.460754 152 78 163
396.239990 220.979996 265.589996 152 78 163
368.299988 205.740005 279.209991 152 78 163
384.809998 269.239990 279.209991 152 78 163
478.790009 287.019989 279.209991 152 78 163
395.663300 298.488861 282.719208 152 78 163
458.470001 320.040009 279.209991 152 78 163
353.059998 237.490005 286.019989 152 78 163
427.989990 176.529999 292.829987 152 78 163
466.089996 208.279999 306.450012 152 78 163
497.839996 278.130005 224.729996 152 78 163
500.380005 300.989990 251.970001 55 126 184
538.880005 322.110077 263.444946 55 126 184
492.760010 280.670013 265.589996 55 126 184
501.649994 193.039993 272.399994 55 126 184
556.260010 278.130005 272.399994 55 126 184
498.722443 227.717560 283.941864 55 126 184
548.640015 270.510010 279.209991 55 126 184
491.489990 293.369995 279.209991 55 126 184
495.299988 300.989990 279.209991 55 126 184
505.459991 218.440002 286.019989 55 126 184
511.809998 285.750000 286.019989 55 126 184
510.920197 298.959625 300.743835 55 126 184
143.509995 355.600006 224.729996 55 126 184
143.509995 327.660004 231.539993 55 126 184
90.169998 402.589996 231.539993 55 126 184
82.550003 407.670013 231.539993 55 126 184
153.669998 454.660004 231.539993 55 126 184
113.029999 328.929993 245.160004 55 126 184
155.741776 359.410004 252.825684 55 126 184
127.000000 361.950012 245.160004 55 126 184
114.300003 435.609985 245.160004 55 126 184
152.399994 374.649994 251.970001 55 126 184
149.860001 345.440002 258.779999 55 126 184
111.760002 351.790009 265.589996 55 126 184
132.080002 393.700012 265.589996 55 126 184
153.669998 336.549988 272.399994 55 126 184
148.589996 383.540009 272.399994 55 126 184
147.320007 355.600006 279.209991 55 126 184
118.879921 377.190002 290.148468 55 126 184
151.130005 332.739990 299.640015 55 126 184
256.540009 345.440002 224.729996 152 78 163
252.729996 369.570007 224.729996 152 78 163
252.729996 384.809998 224.729996 152 78 163
210.820007 412.750000 224.729996 152 78 163
213.360001 470.751892 229.297974 152 78 163
237.490005 358.140015 231.539993 152 78 163
213.360001 367.029999 231.539993 152 78 163
283.209991 400.049988 231.539993 152 78 163
278.130005 454.660004 231.539993 152 78 163
196.850006 400.049988 238.350006 55 126 184
298.908356 414.884186 242.983887 55 126 184
283.209991 364.489990 245.160004 55 126 184
229.869995 369.570007 245.160004 55 126 184
240.029999 373.902283 249.169464 55 126 184
203.199997 375.920013 245.160004 55 126 184
247.622147 401.501434 253.646072 55 126 184
213.994995 460.375000 248.565002 55 126 184
232.086243 469.794189 254.874847 55 126 184
259.079987 344.170013 251.970001 55 126 184
237.490005 360.679993 251.970001 55 126 184
283.783661 484.069519 260.524170 55 126 184
222.250000 372.109985 258.779999 55 126 184
243.839996 386.079987 258.779999 55 126 184
220.979996 386.079987 265.589996 55 126 184
270.510010 424.179993 265.589996 55 126 184
280.670013 424.179993 265.589996 55 126 184
251.460007 480.059998 265.589996 55 126 184
271.779999 336.549988 272.399994 55 126 184
163.830002 358.140015 272.399994 55 126 184
222.250000 363.220001 272.399994 55 126 184
279.399994 374.649994 272.399994 55 126 184
199.389999 407.670013 276.331024 55 126 184
283.209991 483.869995 272.399994 55 126 184
198.119995 486.410004 272.399994 55 126 184
246.380005 361.950012 279.209991 55 126 184
226.059998 435.609985 279.209991 55 126 184
242.570007 445.769989 279.209991 55 126 184
207.009995 340.359985 286.019989 55 126 184
