ply
format ascii 1.0
element vertex 1109
property float x
property float y
property float z
property uchar red
property uchar green
property uchar blue
end_header
152.399994 379.730011 47.669998 152 78 163
261.619995 439.420013 68.099998 55 126 184
182.880005 468.630005 74.910004 77 175 74
168.910004 471.170013 74.910004 55 126 184
303.529999 422.910004 81.720001 228 26 28
260.350006 364.489990 95.339996 228 26 28
339.089996 344.170013 61.290001 228 26 28
350.519989 349.250000 74.910004 228 26 28
378.459991 327.660004 81.720001 152 78 163
106.680000 85.089996 217.919998 152 78 163
306.070007 107.949997 115.769997 152 78 163
309.880005 143.509995 129.389999 152 78 163
309.880005 50.799999 136.199997 152 78 163
307.339996 95.250000 143.009995 152 78 163
312.420013 127.000000 143.009995 228 26 28
304.480194 142.550552 148.105072 152 78 163
203.199997 156.210007 217.919998 77 175 74
115.570000 266.700012 170.250000 77 175 74
308.441772 176.315704 126.997627 228 26 28
308.609985 186.690002 115.769997 228 26 28
304.799988 200.660004 115.769997 228 26 28
309.880005 176.529999 129.389999 228 26 28
302.260010 222.250000 143.009995 228 26 28
292.100006 295.910004 143.009995 228 26 28
249.133759 300.547943 153.161835 228 26 28
300.989990 301.586914 153.429169 228 26 28
298.450012 180.339996 156.630005 228 26 28
299.720001 217.169998 156.630005 228 26 28
303.529999 231.139999 163.440002 228 26 28
295.910004 252.729996 163.440002 228 26 28
309.880005 288.290009 163.440002 228 26 28
283.209991 325.119995 170.250000 77 175 74
191.770004 288.290009 197.490005 55 126 184
601.979980 276.859985 204.300003 152 78 163
144.779999 481.329987 170.250000 152 78 163
142.240005 425.450012 190.679993 55 126 184
108.874725 421.294739 202.448578 55 126 184
90.169998 372.109985 204.300003 152 78 163
217.169998 431.799988 129.389999 152 78 163
285.750000 373.380005 143.009995 152 78 163
309.880005 400.049988 163.440002 55 126 184
216.601944 446.605804 167.203934 55 126 184
179.070007 471.170013 183.869995 55 126 184
236.220001 365.760010 190.679993 55 126 184
227.330002 406.399994 190.679993 152 78 163
191.770004 472.440002 197.490005 55 126 184
212.089996 367.029999 204.300003 55 126 184
378.459991 335.279999 156.630005 55 126 184
396.239990 408.940002 183.869995 55 126 184
393.700012 426.720001 183.869995 55 126 184
414.019989 356.869995 190.679993 55 126 184
368.778961 458.958191 224.680511 152 78 163
638.809998 377.190002 170.250000 228 26 28
637.539978 411.480011 177.059998 228 26 28
617.219971 453.390015 183.869995 228 26 28
532.130005 468.630005 197.490005 228 26 28
556.260010 485.140015 204.300003 228 26 28
120.650002 574.039978 177.059998 228 26 28
212.089996 518.159973 163.440002 55 126 184
185.419998 563.880005 177.059998 55 126 184
263.096161 532.130005 188.041519 152 78 163
228.240295 535.342041 193.446274 152 78 163
219.710007 549.909973 183.869995 152 78 163
161.744919 507.090149 211.889267 152 78 163
237.213684 499.330536 222.065811 228 26 28
414.072418 554.144531 193.237595 228 26 28
468.630005 566.419983 183.869995 228 26 28
481.329987 577.849976 183.869995 228 26 28
403.033356 527.049988 198.208527 228 26 28
397.510010 513.080017 211.110001 228 26 28
629.919983 529.590027 170.250000 228 26 28
641.349976 494.029999 183.869995 228 26 28
600.710022 561.340027 183.869995 228 26 28
491.489990 582.929993 190.679993 228 26 28
114.300003 123.190002 272.399994 55 126 184
152.399994 144.779999 292.829987 77 175 74
203.199997 139.699997 265.589996 77 175 74
210.820007 107.949997 320.070007 77 175 74
466.089996 132.080002 306.450012 77 175 74
457.200012 142.240005 320.070007 77 175 74
496.570007 162.559998 320.070007 77 175 74
85.089996 179.070007 258.779999 55 126 184
114.300003 238.759995 265.589996 55 126 184
146.511108 306.070007 276.737457 55 126 184
121.919998 266.700012 306.450012 77 175 74
267.970001 283.209991 224.729996 77 175 74
250.190002 218.440002 231.539993 77 175 74
184.149994 297.179993 231.539993 77 175 74
196.850006 325.119995 251.970001 77 175 74
204.470001 194.309998 258.779999 77 175 74
196.850006 186.690002 272.399994 77 175 74
247.880890 288.290009 283.234009 77 175 74
220.979996 292.100006 279.209991 77 175 74
245.110001 204.470001 292.829987 77 175 74
196.850006 316.230011 299.640015 77 175 74
215.899994 256.540009 313.260010 55 126 184
163.830002 322.579987 313.260010 55 126 184
198.119995 224.789993 320.070007 77 175 74
412.040253 279.354767 259.695862 77 175 74
353.059998 306.070007 265.589996 77 175 74
364.489990 320.040009 265.589996 77 175 74
387.350006 322.579987 286.019989 77 175 74
384.809998 293.369995 299.640015 77 175 74
421.640015 308.609985 299.640015 77 175 74
447.040009 179.070007 306.450012 77 175 74
424.179993 194.309998 306.450012 77 175 74
466.089996 307.339996 320.070007 55 126 184
594.359985 280.670013 238.350006 152 78 163
505.459991 207.009995 279.209991 55 126 184
85.554863 454.660004 230.709106 152 78 163
97.790001 463.549988 224.729996 152 78 163
153.669998 358.140015 231.539993 152 78 163
72.389999 431.799988 231.539993 228 26 28
64.769997 457.200012 231.539993 228 26 28
82.854599 327.439728 242.345566 152 78 163
121.919998 435.609985 238.350006 152 78 163
142.240005 427.989990 245.160004 152 78 163
135.889999 401.320007 265.589996 152 78 163
148.589996 415.290009 272.399994 55 126 184
287.019989 339.089996 224.729996 55 126 184
189.229996 373.380005 231.539993 55 126 184
217.169998 365.235687 242.348602 55 126 184
248.919998 476.250000 238.350006 152 78 163
230.754242 444.774231 254.339142 152 78 163
195.580002 477.519989 245.160004 55 126 184
251.460007 368.299988 251.970001 55 126 184
241.300003 370.839996 251.970001 55 126 184
254.000000 411.480011 251.970001 55 126 184
233.679993 463.549988 251.970001 55 126 184
205.740005 384.809998 265.589996 55 126 184
209.550003 393.700012 272.399994 55 126 184
229.869995 398.779999 272.399994 152 78 163
247.649994 434.339996 272.399994 152 78 163
257.100311 443.043213 280.337433 152 78 163
212.089996 340.359985 279.209991 152 78 163
247.649994 420.369995 279.209991 55 126 184
266.700012 434.829865 282.874420 55 126 184
246.380005 408.940002 286.019989 55 126 184
248.919998 345.440002 292.829987 55 126 184
226.931183 352.000214 301.836426 55 126 184
210.820007 405.130005 292.829987 55 126 184
243.839996 433.070007 292.829987 55 126 184
241.300003 389.890015 299.640015 55 126 184
181.010254 327.589478 310.044067 55 126 184
207.009995 369.116516 310.828278 55 126 184
175.259995 393.700012 306.450012 55 126 184
172.720001 345.440002 320.070007 55 126 184
184.149994 393.700012 320.070007 55 126 184
411.480011 386.079987 224.729996 55 126 184
425.670288 395.792572 231.250961 55 126 184
462.915009 413.385010 228.134995 152 78 163
378.459991 453.390015 238.350006 152 78 163
364.489990 472.440002 238.350006 152 78 163
346.709991 487.679993 238.350006 152 78 163
353.882355 359.857635 249.569672 55 126 184
481.329987 392.807739 257.767273 55 126 184
445.940430 420.413940 261.109039 152 78 163
402.589996 447.040009 265.589996 152 78 163
423.572205 457.200012 269.140869 152 78 163
364.489990 464.820007 265.589996 152 78 163
342.899994 415.290009 272.399994 152 78 163
354.329987 430.529999 272.399994 55 126 184
342.899994 356.869995 279.209991 77 175 74
344.170013 407.670013 279.209991 55 126 184
386.079987 387.350006 286.019989 55 126 184
373.380005 422.910004 286.019989 55 126 184
466.089996 398.779999 313.260010 77 175 74
568.960022 444.500000 251.970001 228 26 28
542.289978 370.839996 258.779999 152 78 163
529.590027 401.320007 258.779999 152 78 163
91.440002 539.750000 231.539993 228 26 28
54.610001 511.809998 238.350006 228 26 28
203.199997 506.730011 231.539993 228 26 28
245.110001 505.459991 238.350006 228 26 28
207.009995 533.400024 245.160004 228 26 28
236.220001 505.459991 251.970001 228 26 28
194.309998 510.540009 251.970001 228 26 28
367.564148 526.782898 234.053696 228 26 28
408.940002 510.005890 243.187027 228 26 28
364.489990 547.369995 238.350006 228 26 28
635.000000 250.190002 197.490005 228 26 28
638.809998 501.649994 197.490005 152 78 163
157.479996 154.940002 27.240000 55 126 184
121.919998 158.750000 27.240000 77 175 74
162.559998 106.680000 34.049999 55 126 184
173.990005 128.270004 40.860001 152 78 163
220.593491 92.709999 60.253738 152 78 163
203.199997 114.300003 54.480000 152 78 163
203.199997 157.479996 54.480000 152 78 163
271.779999 111.760002 88.529999 55 126 184
320.040009 154.940002 102.150002 77 175 74
245.110001 39.369999 108.959999 77 175 74
293.369995 162.559998 108.959999 55 126 184
443.230011 147.320007 81.720001 152 78 163
146.050003 186.690002 20.430000 228 26 28
139.699997 204.470001 20.430000 228 26 28
133.350006 234.949997 20.430000 152 78 163
68.580002 241.300003 20.430000 152 78 163
138.429993 266.700012 20.430000 152 78 163
156.210007 215.899994 27.240000 228 26 28
147.320007 224.789993 27.240000 152 78 163
157.479996 224.789993 27.240000 152 78 163
163.830002 176.529999 27.240000 152 78 163
165.100006 224.265137 31.235563 152 78 163
200.191025 322.545776 31.718807 152 78 163
184.149994 176.529999 34.049999 152 78 163
177.800003 237.490005 34.049999 152 78 163
185.419998 248.919998 34.049999 152 78 163
193.039993 278.130005 34.049999 152 78 163
194.309998 292.100006 34.049999 152 78 163
196.850006 170.179993 54.480000 228 26 28
237.490005 217.169998 68.099998 228 26 28
267.970001 229.869995 88.529999 228 26 28
271.779999 233.679993 88.529999 228 26 28
295.910004 281.940002 102.150002 228 26 28
298.450012 167.639999 108.959999 228 26 28
443.230011 234.949997 27.240000 55 126 184
403.859985 204.470001 47.669998 152 78 163
391.160004 254.000000 47.669998 228 26 28
386.079987 176.529999 68.099998 228 26 28
384.809998 187.960007 68.099998 228 26 28
365.296661 222.600250 87.221191 228 26 28
365.760010 264.160004 74.910004 228 26 28
391.160004 214.630005 88.529999 228 26 28
386.079987 217.169998 88.529999 228 26 28
340.359985 257.809998 102.150002 228 26 28
139.699997 410.209991 20.430000 152 78 163
110.489998 457.200012 20.430000 152 78 163
157.479996 377.190002 34.049999 152 78 163
119.379997 337.820007 68.099998 152 78 163
166.369995 339.089996 20.430000 152 78 163
175.259995 364.489990 20.430000 152 78 163
199.389999 400.049988 20.430000 152 78 163
186.690002 340.359985 27.240000 152 78 163
185.419998 353.059998 27.240000 152 78 163
215.899994 435.609985 27.240000 152 78 163
228.600006 454.660004 27.240000 152 78 163
182.880005 327.660004 34.049999 228 26 28
274.320007 393.700012 47.669998 228 26 28
311.149994 358.140015 68.099998 228 26 28
289.559998 360.679993 68.099998 228 26 28
232.410004 368.299988 74.910004 228 26 28
311.149994 336.549988 81.720001 228 26 28
303.529999 452.119995 81.720001 77 175 74
454.660004 351.790009 20.430000 77 175 74
431.799988 455.929993 20.430000 77 175 74
391.160004 332.739990 27.240000 152 78 163
356.869995 396.239990 27.240000 152 78 163
350.519989 429.260010 27.240000 55 126 184
374.649994 445.769989 27.240000 77 175 74
383.540009 347.980011 34.049999 77 175 74
378.459991 350.519989 34.049999 55 126 184
392.429993 422.910004 40.860001 152 78 163
327.808380 347.507202 65.564789 228 26 28
331.470001 400.049988 81.720001 152 78 163
151.130005 539.750000 20.430000 55 126 184
180.339996 523.239990 20.430000 77 175 74
234.949997 506.730011 81.720001 77 175 74
149.860001 60.959999 217.919998 55 126 184
311.149994 132.080002 122.580002 228 26 28
252.729996 88.900002 129.389999 55 126 184
252.729996 95.250000 136.199997 55 126 184
254.000000 105.410004 136.199997 55 126 184
345.440002 92.709999 129.389999 152 78 163
544.830017 110.489998 217.919998 55 126 184
274.320007 303.529999 163.440002 55 126 184
224.789993 233.679993 170.250000 55 126 184
226.059998 241.300003 197.490005 55 126 184
336.549988 298.450012 122.580002 152 78 163
367.029999 307.339996 122.580002 152 78 163
402.589996 208.279999 129.389999 152 78 163
364.489990 318.769989 143.009995 152 78 163
361.950012 255.270004 163.440002 152 78 163
262.890015 342.899994 122.580002 152 78 163
297.179993 389.890015 136.199997 152 78 163
284.480011 336.549988 204.300003 77 175 74
289.559998 435.609985 217.919998 77 175 74
459.739990 391.160004 197.490005 77 175 74
401.320007 351.790009 204.300003 55 126 184
408.940002 431.799988 204.300003 55 126 184
450.850006 345.440002 222.108444 152 78 163
146.050003 552.450012 190.679993 152 78 163
172.971024 501.929932 176.777145 152 78 163
260.350006 556.260010 183.869995 152 78 163
534.669983 551.179993 170.250000 152 78 163
574.039978 580.390015 170.250000 152 78 163
124.459999 82.550003 258.779999 55 126 184
134.619995 102.870003 258.779999 77 175 74
134.619995 129.539993 258.779999 77 175 74
164.378448 122.583855 255.529709 77 175 74
624.840027 36.830002 251.970001 152 78 163
645.159973 110.489998 251.970001 228 26 28
560.070007 130.809998 258.779999 55 126 184
209.550003 190.500000 224.729996 77 175 74
248.919998 246.380005 245.160004 77 175 74
281.940002 309.880005 251.970001 77 175 74
245.110001 208.279999 258.779999 77 175 74
258.748260 299.994812 277.431213 77 175 74
490.369995 293.779999 276.207184 55 126 184
132.080002 458.470001 245.160004 55 126 184
289.559998 350.519989 258.779999 55 126 184
250.190002 326.390015 265.589996 55 126 184
314.959991 400.049988 286.019989 55 126 184
406.399994 406.399994 238.350006 55 126 184
342.899994 388.619995 272.399994 55 126 184
375.920013 417.829987 292.829987 152 78 163
373.380005 106.680000 88.529999 152 78 163
365.760010 154.940002 95.339996 228 26 28
363.220001 118.110001 102.150002 228 26 28
171.449997 224.789993 27.240000 152 78 163
201.929993 323.850006 34.049999 152 78 163
255.270004 220.979996 81.720001 228 26 28
241.300003 237.490005 81.720001 228 26 28
302.260010 309.880005 88.529999 228 26 28
289.559998 236.220001 95.339996 228 26 28
283.209991 294.640015 102.150002 228 26 28
314.959991 284.480011 108.959999 228 26 28
422.910004 222.250000 34.049999 228 26 28
342.899994 187.960007 102.150002 228 26 28
372.109985 240.029999 108.959999 228 26 28
245.110001 392.429993 47.669998 152 78 163
284.480011 461.010010 61.290001 152 78 163
285.750000 382.269989 68.099998 55 126 184
435.609985 392.429993 40.860001 55 126 184
445.769989 461.010010 47.669998 55 126 184
328.929993 327.660004 81.720001 152 78 163
166.369995 495.299988 34.049999 55 126 184
114.300003 161.289993 197.490005 77 175 74
255.130432 86.876373 127.369453 77 175 74
312.420013 101.599998 122.580002 55 126 184
312.420013 114.300003 122.580002 152 78 163
295.910004 67.309998 156.630005 55 126 184
180.339996 87.629997 217.919998 77 175 74
455.295013 125.730003 180.464996 77 175 74
143.509995 295.910004 211.110001 55 126 184
315.390015 243.000015 127.137909 228 26 28
322.579987 241.300003 122.580002 228 26 28
318.769989 195.580002 129.389999 228 26 28
316.230011 208.279999 129.389999 228 26 28
318.769989 217.169998 129.389999 228 26 28
306.070007 238.759995 143.009995 228 26 28
307.339996 191.770004 149.820007 228 26 28
261.299988 234.000015 219.636002 152 78 163
330.200012 204.470001 122.580002 228 26 28
327.660004 234.949997 122.580002 228 26 28
548.640015 302.260010 177.059998 152 78 163
612.140015 184.149994 197.490005 55 126 184
81.279999 374.649994 177.059998 152 78 163
58.419998 485.140015 177.059998 228 26 28
64.769997 429.260010 190.679993 228 26 28
71.120003 477.519989 190.679993 228 26 28
251.460007 378.459991 149.820007 228 26 28
245.110001 387.350006 149.820007 152 78 163
275.589996 424.179993 177.059998 55 126 184
161.519394 342.958557 230.309967 77 175 74
488.579681 416.559998 121.587151 77 175 74
401.320007 462.279999 143.009995 77 175 74
392.429993 375.920013 197.490005 77 175 74
345.440002 400.049988 204.300003 55 126 184
424.179993 472.440002 211.110001 152 78 163
536.473083 438.437714 194.341324 152 78 163
641.349976 443.230011 183.869995 228 26 28
633.729980 474.980011 183.869995 228 26 28
642.619995 481.329987 183.869995 228 26 28
638.809998 444.500000 197.490005 228 26 28
588.010010 383.540009 211.110001 228 26 28
142.240005 533.400024 170.250000 228 26 28
133.350006 571.500000 170.250000 152 78 163
98.333183 589.280029 174.147354 152 78 163
63.166508 516.350769 185.315659 228 26 28
120.650002 551.179993 177.059998 228 26 28
77.470001 565.150024 177.059998 228 26 28
128.270004 535.940002 183.869995 228 26 28
83.820000 548.640015 183.869995 228 26 28
162.559998 568.285828 202.702576 228 26 28
123.164604 580.364624 200.963089 228 26 28
74.930000 520.700012 204.300003 228 26 28
80.010002 533.400024 204.300003 228 26 28
146.225494 554.672241 211.873001 228 26 28
95.250000 571.500000 204.300003 228 26 28
101.599998 575.309998 204.300003 228 26 28
147.320007 580.390015 204.300003 228 26 28
99.059998 558.799988 217.919998 228 26 28
224.789993 577.849976 170.250000 55 126 184
285.034576 503.474579 209.191879 55 126 184
282.201691 513.341675 212.467636 228 26 28
248.919998 560.070007 204.300003 228 26 28
175.259995 575.309998 204.300003 152 78 163
195.580002 599.440002 217.919998 152 78 163
485.753845 582.887695 173.768478 152 78 163
425.974396 497.104431 199.169525 228 26 28
431.799988 561.340027 190.679993 228 26 28
460.943268 569.471191 197.311096 228 26 28
445.769989 586.739990 190.679993 228 26 28
408.940002 566.419983 197.490005 228 26 28
430.036530 575.803467 208.463989 228 26 28
422.910004 584.200012 211.110001 228 26 28
491.489990 511.809998 170.250000 228 26 28
637.539978 499.109985 177.059998 228 26 28
586.739990 521.969971 177.059998 228 26 28
603.250000 528.320007 177.059998 228 26 28
553.719971 533.400024 177.059998 228 26 28
530.859985 562.609985 177.059998 228 26 28
580.390015 576.580017 177.059998 228 26 28
645.159973 520.700012 183.869995 228 26 28
563.880005 594.359985 183.869995 228 26 28
562.609985 521.969971 190.679993 228 26 28
541.020020 524.510010 197.490005 228 26 28
544.830017 590.549988 197.490005 228 26 28
542.289978 519.429993 211.110001 228 26 28
488.950012 535.940002 217.919998 228 26 28
90.169998 52.070000 292.829987 152 78 163
93.980003 58.419998 292.829987 55 126 184
60.168072 84.611931 297.076477 55 126 184
151.130005 115.570000 292.829987 77 175 74
137.160004 57.150002 306.450012 77 175 74
241.300003 157.479996 224.729996 77 175 74
166.369995 72.389999 238.350006 77 175 74
229.126740 136.943466 302.213318 77 175 74
491.489990 114.300003 258.779999 77 175 74
548.422058 126.379494 273.735657 77 175 74
497.839996 151.130005 265.589996 77 175 74
576.580017 92.709999 286.019989 77 175 74
549.909973 129.539993 286.019989 77 175 74
509.269989 77.470001 292.829987 77 175 74
113.029999 278.130005 231.539993 77 175 74
260.350006 234.285248 228.294540 77 175 74
208.914993 168.274994 234.945007 77 175 74
285.750000 307.339996 279.209991 77 175 74
248.919998 293.369995 286.019989 77 175 74
467.359985 194.309998 238.350006 77 175 74
449.058624 257.809998 255.984238 77 175 74
476.250000 269.239990 258.779999 77 175 74
387.350006 255.270004 265.589996 77 175 74
474.980011 287.019989 265.589996 77 175 74
375.920013 276.859985 272.399994 77 175 74
397.510010 246.380005 306.450012 77 175 74
384.809998 237.140991 318.423798 77 175 74
527.049988 238.759995 265.589996 55 126 184
538.479980 314.959991 265.589996 55 126 184
565.150024 236.220001 306.450012 77 175 74
57.150002 375.920013 224.729996 152 78 163
139.699997 447.040009 224.729996 228 26 28
60.385696 412.628601 235.270462 228 26 28
162.559998 478.790009 245.160004 152 78 163
285.750000 375.920013 251.970001 77 175 74
249.565948 436.880005 269.053711 55 126 184
166.369995 328.929993 272.399994 55 126 184
322.579987 396.239990 272.399994 77 175 74
220.979996 412.750000 272.399994 152 78 163
280.670013 463.549988 279.209991 152 78 163
406.079620 392.429993 255.804474 55 126 184
339.089996 481.329987 251.970001 55 126 184
339.089996 367.029999 258.779999 77 175 74
384.809998 443.230011 265.589996 152 78 163
477.519989 367.029999 299.640015 152 78 163
485.140015 407.670013 306.450012 77 175 74
476.250000 397.510010 320.070007 77 175 74
585.469971 405.130005 224.729996 228 26 28
536.803467 420.251251 229.996689 228 26 28
592.514404 450.274445 228.453705 228 26 28
595.272461 334.564911 266.648285 228 26 28
523.239990 353.059998 272.399994 152 78 163
532.130005 411.480011 286.019989 152 78 163
542.289978 391.160004 292.829987 228 26 28
62.230000 514.349976 224.729996 228 26 28
64.769997 524.510010 224.729996 228 26 28
59.689999 532.130005 224.729996 228 26 28
80.010002 496.570007 231.539993 228 26 28
116.839996 534.669983 245.160004 228 26 28
279.741119 532.812256 236.520844 228 26 28
191.770004 563.880005 231.539993 228 26 28
185.419998 515.619995 238.350006 152 78 163
237.490005 571.500000 238.350006 228 26 28
228.600006 496.570007 245.160004 228 26 28
226.059998 557.530029 251.970001 228 26 28
212.089996 494.029999 279.209991 228 26 28
389.685272 507.689331 238.918106 228 26 28
396.239990 571.500000 231.539993 228 26 28
350.519989 518.159973 238.350006 152 78 163
356.869995 544.830017 238.350006 228 26 28
373.380005 497.839996 245.160004 228 26 28
374.649994 511.809998 245.160004 228 26 28
356.869995 529.590027 251.970001 228 26 28
402.633240 503.372162 263.397278 228 26 28
521.969971 508.000000 251.970001 228 26 28
317.500000 158.750000 163.440002 228 26 28
320.040009 166.369995 163.440002 228 26 28
299.720001 173.990005 163.440002 228 26 28
308.609985 205.740005 163.440002 228 26 28
236.220001 335.279999 238.350006 55 126 184
152.399994 162.559998 20.430000 55 126 184
140.970001 146.050003 27.240000 152 78 163
186.690002 147.320007 47.669998 152 78 163
269.239990 97.790001 88.529999 152 78 163
288.290009 149.860001 102.150002 228 26 28
416.559998 154.940002 61.290001 152 78 163
411.480011 106.680000 102.150002 55 126 184
153.669998 246.380005 20.430000 55 126 184
153.669998 267.970001 27.240000 55 126 184
125.730003 293.369995 40.860001 55 126 184
144.779999 194.309998 54.480000 55 126 184
170.179993 295.910004 27.240000 152 78 163
184.149994 317.500000 27.240000 228 26 28
165.100006 189.229996 34.049999 228 26 28
189.229996 266.700012 34.049999 228 26 28
212.770309 195.670624 64.937988 228 26 28
181.610001 265.429993 88.529999 152 78 163
217.169998 165.100006 95.339996 152 78 163
480.059998 199.389999 40.860001 77 175 74
459.739990 208.279999 40.860001 77 175 74
410.209991 262.890015 47.669998 152 78 163
381.000000 210.820007 61.290001 152 78 163
389.890015 254.000000 68.099998 152 78 163
430.529999 224.789993 74.910004 152 78 163
393.700012 189.229996 81.720001 152 78 163
392.068817 293.369995 86.593292 152 78 163
375.920013 295.910004 81.720001 152 78 163
421.640015 303.529999 81.720001 152 78 163
341.630005 293.369995 88.529999 228 26 28
393.700012 173.990005 95.339996 228 26 28
373.380005 193.039993 95.339996 228 26 28
407.670013 163.830002 102.150002 77 175 74
427.989990 182.880005 102.150002 77 175 74
101.599998 453.390015 27.240000 55 126 184
76.199997 471.170013 27.240000 55 126 184
138.429993 384.809998 54.480000 55 126 184
137.160004 471.170013 61.290001 77 175 74
137.160004 386.079987 68.099998 55 126 184
229.869995 443.230011 27.240000 152 78 163
241.782104 444.017883 31.937571 228 26 28
187.960007 368.299988 40.860001 152 78 163
182.880005 378.459991 40.860001 228 26 28
311.149994 398.779999 40.860001 228 26 28
255.270004 430.529999 47.669998 152 78 163
175.259995 326.390015 54.480000 152 78 163
181.610001 401.320007 54.480000 152 78 163
278.439117 433.468018 62.947601 55 126 184
288.290009 439.420013 54.480000 55 126 184
276.859985 445.769989 54.480000 152 78 163
279.399994 361.950012 61.290001 228 26 28
236.220001 379.730011 61.290001 228 26 28
251.460007 458.470001 65.004074 228 26 28
276.859985 377.190002 68.099998 228 26 28
220.979996 421.640015 68.099998 152 78 163
208.279999 474.980011 68.099998 55 126 184
283.209991 373.380005 102.150002 55 126 184
420.369995 435.609985 20.430000 55 126 184
405.130005 400.049988 27.240000 55 126 184
392.429993 412.750000 27.240000 55 126 184
331.470001 453.390015 27.240000 55 126 184
355.600006 375.920013 34.049999 152 78 163
408.940002 389.890015 34.049999 55 126 184
354.329987 483.869995 34.049999 77 175 74
361.950012 405.130005 40.860001 55 126 184
381.000000 459.739990 54.480000 77 175 74
439.420013 368.299988 61.290001 77 175 74
402.589996 430.529999 61.290001 77 175 74
339.089996 386.079987 68.099998 228 26 28
394.970001 390.673859 72.303131 228 26 28
335.279999 393.700012 68.099998 228 26 28
82.550003 519.429993 20.430000 152 78 163
259.243591 89.213425 124.260628 55 126 184
248.919998 40.639999 122.580002 55 126 184
316.230011 156.210007 122.580002 152 78 163
209.550003 133.350006 149.820007 55 126 184
314.959991 147.320007 149.820007 152 78 163
290.829987 154.940002 149.820007 228 26 28
279.399994 121.919998 156.630005 152 78 163
220.979996 127.000000 211.110001 55 126 184
105.410004 317.500000 170.250000 55 126 184
116.839996 226.059998 217.919998 55 126 184
92.709999 273.049988 217.919998 55 126 184
113.029999 274.320007 217.919998 55 126 184
147.320007 299.720001 217.919998 152 78 163
306.742920 264.160004 124.177551 228 26 28
316.230011 175.259995 122.580002 228 26 28
220.979996 218.440002 122.580002 228 26 28
271.779999 247.649994 122.580002 228 26 28
224.789993 270.510010 122.580002 228 26 28
278.130005 306.892365 126.989677 228 26 28
306.070007 264.160004 129.389999 228 26 28
180.339996 266.700012 129.389999 228 26 28
301.625000 210.820007 139.604996 228 26 28
299.720001 193.039993 143.009995 228 26 28
208.279999 187.960007 149.820007 152 78 163
242.570007 254.000000 163.440002 152 78 163
284.480011 274.320007 163.440002 152 78 163
245.110001 199.389999 217.919998 55 126 184
393.700012 245.110001 122.580002 77 175 74
417.829987 165.100006 136.199997 77 175 74
355.600006 292.100006 143.009995 55 126 184
401.320007 306.070007 143.009995 55 126 184
374.649994 312.420013 149.820007 55 126 184
397.510010 228.600006 163.440002 55 126 184
381.000000 257.809998 163.440002 77 175 74
408.940002 302.260010 183.869995 77 175 74
408.940002 223.520004 217.919998 77 175 74
480.059998 228.600006 217.919998 77 175 74
627.380005 269.239990 204.300003 152 78 163
518.159973 190.500000 211.110001 152 78 163
102.870003 458.470001 183.869995 152 78 163
140.970001 345.440002 190.679993 152 78 163
65.553841 391.160004 215.313126 152 78 163
82.550003 481.329987 221.734848 228 26 28
227.330002 327.660004 122.580002 228 26 28
246.380005 403.859985 122.580002 152 78 163
279.399994 378.229767 147.138474 55 126 184
187.960007 356.869995 217.919998 55 126 184
248.919998 480.059998 217.919998 55 126 184
332.739990 374.649994 149.820007 55 126 184
353.059998 414.019989 170.250000 55 126 184
487.917389 471.452637 210.867355 152 78 163
468.630005 397.510010 211.110001 152 78 163
631.190002 377.190002 170.250000 152 78 163
542.289978 433.070007 170.250000 228 26 28
612.140015 462.279999 170.250000 228 26 28
543.559998 476.250000 170.250000 152 78 163
563.880005 382.269989 177.059998 152 78 163
552.450012 386.079987 177.059998 152 78 163
541.020020 458.470001 177.059998 152 78 163
490.220001 459.739990 177.059998 152 78 163
553.719971 414.019989 183.869995 152 78 163
544.830017 433.070007 183.869995 152 78 163
594.359985 435.609985 183.869995 228 26 28
541.020020 476.250000 190.679993 228 26 28
632.460022 345.440002 197.490005 228 26 28
587.431152 391.905365 206.121246 228 26 28
618.489990 394.970001 197.490005 228 26 28
603.250000 381.000000 204.300003 228 26 28
553.719971 410.209991 204.300003 152 78 163
522.464844 460.795502 208.456619 152 78 163
149.860001 543.559998 170.250000 152 78 163
120.650002 496.570007 177.059998 152 78 163
111.760002 555.589722 180.654053 152 78 163
156.210007 567.690002 177.059998 228 26 28
101.599998 558.799988 183.869995 228 26 28
101.599998 499.109985 194.926483 228 26 28
87.629997 556.260010 190.679993 228 26 28
135.889999 561.340027 190.679993 228 26 28
82.550003 492.760010 197.490005 228 26 28
88.900002 506.730011 211.110001 228 26 28
76.199997 529.590027 211.110001 228 26 28
129.539993 581.659973 211.110001 228 26 28
83.820000 520.700012 217.919998 228 26 28
90.169998 528.320007 217.919998 228 26 28
171.449997 585.469971 170.250000 152 78 163
269.239990 488.950012 177.059998 55 126 184
203.784927 583.999695 221.593506 55 126 184
176.529999 593.090027 217.919998 152 78 163
393.404297 563.256165 199.249374 152 78 163
435.116516 582.153503 198.626297 228 26 28
474.980011 599.440002 197.490005 228 26 28
412.750000 581.659973 217.919998 228 26 28
546.591125 493.082672 178.790268 228 26 28
588.215088 493.114960 175.156555 228 26 28
598.352600 511.992584 176.080963 228 26 28
510.939270 507.014496 186.011002 228 26 28
511.338043 563.227783 181.339310 228 26 28
600.879639 576.382812 181.903183 228 26 28
533.400024 579.076721 194.201050 228 26 28
115.570000 124.459999 299.640015 55 126 184
181.610001 153.669998 251.970001 77 175 74
196.850006 130.809998 258.779999 77 175 74
215.899994 129.539993 306.450012 77 175 74
209.550003 146.050003 306.450012 77 175 74
453.390015 135.889999 306.450012 77 175 74
607.059998 153.669998 245.160004 55 126 184
500.380005 128.270004 292.829987 77 175 74
496.570007 114.300003 313.260010 77 175 74
495.299988 134.619995 313.260010 77 175 74
161.289993 240.029999 238.350006 77 175 74
138.429993 194.309998 245.160004 55 126 184
152.399994 261.619995 251.970001 55 126 184
68.580002 275.589996 258.779999 152 78 163
142.240005 298.450012 265.589996 152 78 163
105.410004 321.309998 265.589996 152 78 163
69.849998 302.260010 279.209991 152 78 163
74.930000 196.850006 306.450012 55 126 184
165.100006 238.759995 251.970001 55 126 184
238.759995 218.440002 258.779999 77 175 74
238.759995 248.919998 258.779999 77 175 74
256.540009 314.959991 258.779999 77 175 74
212.089996 199.389999 265.589996 77 175 74
241.300003 229.869995 265.589996 77 175 74
203.199997 193.039993 279.209991 77 175 74
224.789993 218.440002 279.209991 77 175 74
179.775955 186.995239 295.227722 77 175 74
184.149994 163.830002 296.993988 77 175 74
237.490005 261.619995 299.640015 77 175 74
194.881622 165.671616 310.194885 77 175 74
245.110001 191.770004 306.450012 77 175 74
246.380005 237.490005 306.450012 77 175 74
261.619995 271.779999 306.450012 77 175 74
256.540009 283.209991 306.450012 77 175 74
218.440002 288.290009 309.989380 77 175 74
175.259995 176.529999 313.260010 77 175 74
185.419998 243.839996 313.260010 77 175 74
196.850006 248.919998 313.260010 77 175 74
220.979996 209.550003 320.070007 77 175 74
236.220001 229.869995 320.070007 77 175 74
472.440002 179.070007 251.970001 77 175 74
469.899994 220.979996 251.970001 77 175 74
433.070007 203.199997 272.399994 77 175 74
461.010010 243.839996 279.209991 77 175 74
451.706635 171.036636 293.518524 77 175 74
439.420013 222.250000 286.019989 77 175 74
464.820007 226.059998 286.019989 77 175 74
448.309998 246.380005 286.019989 77 175 74
391.160004 290.829987 286.019989 77 175 74
420.369995 177.800003 292.829987 77 175 74
398.779999 180.339996 292.829987 77 175 74
393.700012 260.350006 292.829987 77 175 74
368.299988 266.700012 306.450012 77 175 74
415.290009 165.100006 318.030273 77 175 74
447.040009 196.850006 313.260010 77 175 74
400.049988 261.619995 316.665009 77 175 74
588.010010 276.859985 228.328842 55 126 184
554.989990 304.799988 238.350006 152 78 163
591.820007 233.679993 245.160004 152 78 163
598.169983 275.589996 251.970001 152 78 163
546.099976 307.339996 260.895966 152 78 163
619.760010 166.369995 258.779999 152 78 163
589.873657 199.559082 269.680054 152 78 163
588.010010 228.600006 262.184998 152 78 163
609.599976 266.700012 258.779999 152 78 163
605.789978 308.609985 258.779999 152 78 163
500.380005 186.690002 313.260010 77 175 74
119.379997 336.549988 224.729996 55 126 184
132.080002 388.619995 224.729996 152 78 163
121.919998 398.779999 224.729996 152 78 163
74.222588 450.850006 233.527069 228 26 28
62.230000 454.088379 228.474869 228 26 28
87.796730 399.269287 240.079651 228 26 28
125.730003 417.829987 231.539993 152 78 163
87.629997 344.170013 238.350006 152 78 163
76.199997 345.440002 238.350006 152 78 163
67.309998 359.410004 238.350006 152 78 163
73.660004 450.850006 238.350006 152 78 163
111.760002 351.790009 306.450012 152 78 163
306.070007 425.450012 245.160004 152 78 163
247.649994 449.579987 251.970001 55 126 184
173.990005 393.700012 258.779999 55 126 184
254.662201 455.213379 267.073669 55 126 184
316.230011 377.190002 268.994995 55 126 184
304.799988 441.959991 272.399994 55 126 184
213.360001 389.890015 286.019989 55 126 184
304.182983 351.137024 303.141357 77 175 74
318.769989 383.540009 306.450012 55 126 184
413.324799 424.828094 239.764725 55 126 184
355.600006 381.000000 238.350006 55 126 184
373.380005 364.489990 245.160004 55 126 184
401.320007 427.989990 245.160004 55 126 184
435.609985 414.019989 258.779999 55 126 184
336.549988 398.779999 299.640015 55 126 184
394.970001 336.549988 313.260010 77 175 74
408.940002 336.549988 313.260010 77 175 74
572.770020 326.390015 224.729996 152 78 163
607.059998 331.470001 224.729996 228 26 28
618.489990 336.549988 224.729996 228 26 28
580.390015 379.730011 224.729996 152 78 163
519.978699 369.570007 266.598419 152 78 163
508.500092 340.359985 310.578491 152 78 163
50.799999 504.190002 224.729996 228 26 28
124.459999 114.300003 47.669998 77 175 74
212.089996 54.610001 81.720001 77 175 74
217.169998 82.550003 81.720001 77 175 74
176.529999 133.350006 81.720001 77 175 74
207.009995 105.410004 95.339996 55 126 184
216.204559 114.656311 100.516869 55 126 184
252.571457 113.400482 113.783386 55 126 184
448.182465 145.541641 72.867966 77 175 74
408.602051 107.462395 99.936600 77 175 74
416.559998 143.509995 88.529999 77 175 74
408.940002 148.589996 88.529999 55 126 184
381.000000 64.769997 95.339996 55 126 184
354.329987 88.900002 114.372803 55 126 184
491.489990 148.589996 54.480000 77 175 74
490.220001 147.320007 68.099998 77 175 74
143.509995 236.220001 61.290001 77 175 74
149.860001 166.369995 81.720001 77 175 74
160.020004 173.990005 81.720001 55 126 184
213.360001 303.529999 68.099998 228 26 28
212.089996 163.830002 74.910004 228 26 28
170.179993 190.500000 88.529999 152 78 163
193.039993 208.279999 88.529999 152 78 163
204.470001 176.529999 95.339996 55 126 184
466.089996 177.800003 34.049999 77 175 74
466.089996 229.869995 34.049999 77 175 74
429.976624 275.535583 51.220879 77 175 74
434.339996 241.300003 74.910004 77 175 74
454.660004 260.350006 74.910004 77 175 74
438.149994 299.720001 74.910004 77 175 74
414.019989 245.110001 81.720001 77 175 74
384.134796 299.880859 85.340652 55 126 184
424.179993 252.729996 88.529999 55 126 184
402.589996 259.079987 88.529999 55 126 184
393.700012 303.529999 88.529999 55 126 184
400.049988 175.259995 95.339996 55 126 184
388.619995 176.529999 102.150002 55 126 184
379.730011 227.330002 102.150002 55 126 184
407.670013 254.000000 108.959999 77 175 74
500.380005 289.559998 20.430000 77 175 74
107.949997 457.200012 34.049999 77 175 74
146.050003 468.630005 61.290001 77 175 74
121.919998 426.720001 68.099998 77 175 74
144.779999 386.079987 74.910004 55 126 184
293.369995 454.660004 61.290001 55 126 184
172.720001 406.399994 68.099998 55 126 184
240.029999 459.739990 74.910004 55 126 184
250.936752 461.010010 83.321831 55 126 184
168.910004 340.359985 81.720001 55 126 184
165.100006 331.470001 88.529999 55 126 184
190.500000 332.739990 88.529999 55 126 184
250.190002 461.010010 88.529999 55 126 184
184.149994 335.279999 95.339996 55 126 184
240.029999 407.670013 95.339996 55 126 184
318.769989 417.829987 102.150002 55 126 184
273.049988 388.619995 108.959999 152 78 163
280.670013 389.890015 108.959999 152 78 163
382.269989 363.220001 61.290001 152 78 163
403.859985 441.959991 68.099998 77 175 74
349.250000 436.880005 81.720001 77 175 74
377.190002 462.279999 81.720001 77 175 74
331.470001 431.799988 102.150002 77 175 74
392.429993 464.820007 102.150002 77 175 74
349.250000 396.239990 108.959999 77 175 74
354.329987 530.859985 20.430000 77 175 74
234.949997 100.330002 122.580002 77 175 74
224.789993 146.050003 136.199997 55 126 184
314.959991 64.769997 143.009995 55 126 184
196.850006 118.110001 143.009995 77 175 74
368.299988 88.900002 115.769997 55 126 184
356.869995 58.419998 129.389999 55 126 184
397.510010 90.169998 163.440002 77 175 74
384.809998 127.000000 163.440002 77 175 74
490.220001 123.190002 190.679993 77 175 74
631.190002 95.250000 204.300003 55 126 184
214.630005 281.940002 122.580002 228 26 28
200.660004 283.209991 122.580002 228 26 28
287.019989 297.179993 122.580002 228 26 28
304.799988 302.260010 122.580002 228 26 28
238.759995 306.070007 122.580002 228 26 28
212.089996 224.789993 129.389999 152 78 163
179.070007 307.339996 129.389999 55 126 184
256.540009 194.309998 163.440002 55 126 184
274.320007 299.720001 170.250000 77 175 74
347.980011 318.769989 143.009995 77 175 74
434.339996 184.149994 163.440002 77 175 74
144.779999 347.980011 143.009995 77 175 74
275.589996 406.399994 115.769997 55 126 184
298.450012 426.720001 115.769997 55 126 184
391.160004 332.739990 115.769997 55 126 184
378.459991 402.589996 115.769997 55 126 184
383.540009 369.570007 136.199997 55 126 184
140.970001 143.509995 258.779999 55 126 184
115.570000 140.970001 292.829987 77 175 74
474.980011 146.050003 258.779999 77 175 74
463.549988 148.589996 258.779999 77 175 74
496.570007 137.160004 258.779999 77 175 74
243.839996 242.570007 272.399994 77 175 74
120.650002 156.210007 20.430000 77 175 74
111.760002 142.240005 40.860001 77 175 74
100.330002 172.720001 20.430000 55 126 184
80.010002 193.039993 20.430000 55 126 184
125.730003 233.679993 20.430000 55 126 184
125.730003 256.540009 20.430000 55 126 184
63.801117 289.832703 30.316902 55 126 184
78.739998 171.449997 40.860001 55 126 184
111.760002 449.579987 27.240000 55 126 184
97.790001 326.390015 40.860001 55 126 184
88.900002 328.929993 40.860001 55 126 184
204.470001 355.600006 27.240000 55 126 184
236.220001 449.579987 40.860001 55 126 184
478.790009 459.739990 20.430000 77 175 74
354.329987 447.040009 40.860001 77 175 74
80.010002 519.429993 40.860001 77 175 74
162.559998 524.510010 40.860001 77 175 74
153.669998 528.320007 40.860001 77 175 74
411.480011 542.289978 27.240000 77 175 74
224.789993 139.699997 88.529999 55 126 184
154.940002 256.540009 61.290001 152 78 163
208.279999 171.449997 54.480000 228 26 28
173.990005 237.490005 61.290001 228 26 28
309.880005 294.640015 88.529999 228 26 28
426.720001 279.399994 40.860001 55 126 184
466.089996 275.589996 47.669998 77 175 74
459.739990 279.399994 47.669998 77 175 74
427.989990 293.369995 54.480000 55 126 184
372.109985 295.910004 88.529999 152 78 163
55.880001 384.809998 54.480000 152 78 163
62.230000 388.619995 54.480000 55 126 184
153.669998 369.570007 102.150002 55 126 184
217.169998 405.130005 47.669998 152 78 163
196.850006 375.920013 54.480000 152 78 163
190.500000 483.869995 54.480000 55 126 184
323.850006 406.399994 81.720001 55 126 184
287.019989 467.359985 88.529999 55 126 184
189.229996 364.489990 95.339996 55 126 184
300.989990 402.589996 108.959999 152 78 163
370.839996 449.579987 47.669998 77 175 74
363.220001 459.739990 47.669998 55 126 184
336.549988 402.589996 68.099998 152 78 163
445.769989 375.920013 74.910004 77 175 74
337.284790 451.049591 85.660156 77 175 74
414.019989 335.279999 88.529999 77 175 74
445.769989 374.649994 88.529999 77 175 74
450.850006 383.540009 88.529999 77 175 74
220.979996 502.920013 54.480000 77 175 74
193.039993 502.920013 88.529999 77 175 74
401.320007 491.489990 47.669998 77 175 74
345.440002 492.760010 88.529999 77 175 74
152.399994 95.250000 217.919998 77 175 74
242.570007 100.330002 129.389999 55 126 184
193.039993 116.839996 136.199997 77 175 74
241.300003 119.379997 211.110001 77 175 74
199.389999 157.479996 211.110001 77 175 74
210.820007 134.619995 217.919998 77 175 74
193.039993 158.750000 217.919998 77 175 74
520.700012 95.250000 177.059998 77 175 74
101.599998 267.970001 197.490005 55 126 184
157.479996 176.529999 217.919998 77 175 74
187.960007 191.770004 204.300003 77 175 74
167.639999 288.290009 211.110001 55 126 184
283.209991 313.690002 211.110001 77 175 74
237.490005 212.089996 217.919998 77 175 74
365.760010 240.029999 122.580002 228 26 28
373.380005 245.110001 129.389999 228 26 28
331.578827 281.994415 160.180878 152 78 163
454.660004 207.009995 177.059998 77 175 74
525.780029 255.270004 177.059998 77 175 74
518.159973 220.979996 183.869995 55 126 184
637.539978 242.570007 190.679993 152 78 163
523.239990 203.199997 204.300003 55 126 184
309.880005 377.190002 163.440002 77 175 74
288.290009 364.489990 197.490005 77 175 74
337.820007 358.140015 149.820007 152 78 163
633.729980 392.429993 183.869995 228 26 28
537.210022 448.309998 190.679993 228 26 28
558.799988 353.059998 204.300003 55 126 184
525.780029 443.230011 211.110001 152 78 163
102.870003 571.500000 190.679993 228 26 28
80.010002 503.858154 215.404739 228 26 28
205.740005 552.450012 177.059998 152 78 163
280.670013 495.299988 197.490005 152 78 163
241.300003 557.530029 197.490005 228 26 28
407.670013 534.669983 177.059998 152 78 163
458.470001 596.900024 190.679993 77 175 74
483.869995 598.169983 197.490005 228 26 28
383.540009 553.719971 204.300003 228 26 28
105.410004 66.040001 238.350006 55 126 184
119.176476 127.419640 272.512115 77 175 74
217.169998 137.160004 224.729996 77 175 74
176.529999 90.169998 238.350006 77 175 74
209.550003 102.870003 238.350006 77 175 74
180.339996 135.889999 238.350006 77 175 74
184.149994 147.320007 238.350006 77 175 74
238.759995 125.730003 251.970001 77 175 74
190.500000 115.570000 265.589996 77 175 74
209.102356 146.497635 283.619690 77 175 74
206.049927 157.139786 284.358093 77 175 74
204.470001 62.230000 286.019989 77 175 74
219.710007 151.130005 306.450012 77 175 74
477.519989 62.230000 265.589996 77 175 74
521.969971 162.559998 238.350006 77 175 74
626.109985 54.610001 245.160004 152 78 163
610.869995 66.040001 251.970001 152 78 163
500.380005 99.059998 251.970001 77 175 74
492.760010 109.220001 251.970001 77 175 74
610.869995 116.839996 251.970001 55 126 184
613.409973 132.080002 251.970001 152 78 163
621.030029 137.160004 258.779999 152 78 163
621.030029 64.769997 265.589996 152 78 163
541.020020 66.040001 265.589996 77 175 74
113.029999 214.630005 231.539993 77 175 74
147.320007 193.039993 238.350006 55 126 184
91.440002 323.850006 245.160004 55 126 184
265.429993 294.640015 231.539993 55 126 184
181.610001 200.660004 238.350006 77 175 74
233.679993 223.520004 238.350006 77 175 74
208.279999 171.449997 258.779999 77 175 74
250.190002 204.470001 265.589996 77 175 74
251.460007 256.540009 265.589996 77 175 74
237.490005 259.079987 265.589996 77 175 74
256.540009 228.600006 286.019989 77 175 74
476.250000 212.089996 238.350006 77 175 74
410.209991 226.059998 279.209991 77 175 74
593.090027 262.890015 231.539993 152 78 163
580.390015 281.940002 245.160004 152 78 163
626.377625 163.830002 257.344940 152 78 163
580.390015 250.190002 251.970001 152 78 163
595.630005 322.579987 251.970001 152 78 163
290.829987 482.600006 224.729996 152 78 163
416.559998 351.790009 231.539993 55 126 184
377.190002 341.630005 306.450012 55 126 184
612.140015 341.630005 224.729996 152 78 163
605.789978 346.709991 224.729996 152 78 163
128.270004 109.220001 34.049999 152 78 163
254.000000 140.970001 88.529999 152 78 163
148.589996 190.500000 34.049999 152 78 163
170.179993 215.899994 20.430000 55 126 184
439.420013 187.960007 88.529999 77 175 74
407.670013 193.039993 88.529999 77 175 74
88.004723 457.574738 24.839676 152 78 163
109.220001 440.690002 27.240000 152 78 163
157.479996 375.920013 54.480000 55 126 184
110.489998 440.690002 54.480000 55 126 184
223.520004 469.899994 34.049999 55 126 184
171.449997 482.600006 34.049999 55 126 184
163.830002 487.679993 34.049999 55 126 184
204.470001 349.250000 40.860001 152 78 163
205.740005 440.690002 88.529999 55 126 184
186.690002 468.630005 88.529999 55 126 184
245.110001 477.519989 88.529999 77 175 74
424.179993 336.549988 20.430000 77 175 74
362.880707 452.685364 34.788219 77 175 74
410.209991 454.660004 27.240000 77 175 74
429.260010 361.950012 54.480000 77 175 74
269.239990 491.489990 88.529999 77 175 74
223.520004 494.029999 88.529999 77 175 74
279.399994 495.299988 88.529999 77 175 74
360.679993 492.760010 27.240000 77 175 74
85.089996 104.139999 217.919998 77 175 74
290.829987 36.830002 122.580002 77 175 74
233.679993 54.610001 122.580002 77 175 74
278.130005 121.919998 149.820007 55 126 184
275.589996 64.769997 156.630005 55 126 184
280.670013 129.539993 156.630005 55 126 184
280.670013 138.429993 156.630005 55 126 184
181.610001 71.120003 204.300003 77 175 74
234.949997 87.629997 204.300003 77 175 74
377.190002 130.809998 122.580002 77 175 74
415.290009 153.669998 190.679993 77 175 74
615.950012 101.599998 177.059998 77 175 74
617.219971 116.839996 177.059998 77 175 74
580.390015 129.539993 177.059998 77 175 74
532.130005 135.889999 204.300003 77 175 74
541.020020 138.429993 204.300003 77 175 74
610.869995 140.970001 217.919998 55 126 184
86.360001 177.800003 204.300003 55 126 184
123.190002 208.279999 204.300003 55 126 184
271.779999 236.220001 136.199997 228 26 28
190.500000 275.589996 136.199997 228 26 28
307.339996 292.100006 136.199997 152 78 163
212.089996 251.460007 177.059998 55 126 184
213.360001 303.529999 177.059998 77 175 74
246.380005 182.880005 217.919998 77 175 74
180.339996 184.149994 217.919998 77 175 74
173.990005 252.729996 217.919998 55 126 184
201.929993 289.559998 217.919998 77 175 74
467.359985 298.450012 170.250000 77 175 74
450.850006 190.500000 177.059998 77 175 74
466.089996 243.839996 177.059998 77 175 74
469.899994 314.959991 177.059998 77 175 74
453.390015 190.500000 190.679993 77 175 74
480.059998 237.490005 190.679993 77 175 74
461.010010 266.700012 190.679993 77 175 74
436.880005 303.529999 190.679993 77 175 74
443.230011 307.339996 190.679993 77 175 74
486.410004 240.029999 217.919998 77 175 74
388.619995 283.209991 217.919998 77 175 74
615.950012 294.640015 177.059998 152 78 163
565.150024 312.420013 177.059998 152 78 163
618.489990 287.019989 190.679993 152 78 163
577.849976 265.429993 204.300003 152 78 163
596.405090 295.027557 224.442200 228 26 28
598.169983 308.609985 217.919998 152 78 163
115.570000 467.359985 170.250000 152 78 163
146.050003 402.589996 217.919998 55 126 184
276.859985 375.920013 122.580002 55 126 184
307.339996 419.100006 122.580002 55 126 184
309.880005 454.660004 122.580002 55 126 184
190.500000 345.440002 177.059998 77 175 74
284.922363 472.968079 210.650375 77 175 74
378.459991 411.480011 122.580002 77 175 74
349.250000 407.670013 136.199997 77 175 74
326.390015 458.470001 170.250000 77 175 74
401.320007 393.700012 177.059998 77 175 74
359.410004 452.119995 177.059998 77 175 74
417.829987 332.739990 217.919998 77 175 74
398.779999 340.359985 217.919998 55 126 184
633.748840 475.152618 179.646317 228 26 28
603.250000 426.720001 190.679993 228 26 28
607.059998 346.709991 204.300003 228 26 28
82.082848 548.817627 179.212509 228 26 28
113.470825 571.601685 205.573395 228 26 28
224.789993 552.623596 176.129089 152 78 163
284.480011 523.239990 217.919998 152 78 163
407.881439 565.911926 198.246216 228 26 28
471.170013 525.780029 197.490005 228 26 28
596.900024 500.380005 170.250000 228 26 28
562.609985 554.989990 170.250000 228 26 28
149.860001 157.479996 231.539993 55 126 184
76.199997 102.870003 245.160004 55 126 184
107.949997 123.190002 245.160004 55 126 184
144.779999 149.860001 258.779999 55 126 184
77.470001 154.940002 258.779999 55 126 184
157.479996 50.799999 272.399994 55 126 184
130.809998 114.300003 272.399994 77 175 74
139.699997 115.570000 272.399994 77 175 74
137.160004 123.190002 272.399994 77 175 74
139.699997 36.830002 299.640015 77 175 74
160.020004 128.270004 299.640015 77 175 74
254.000000 148.589996 231.539993 77 175 74
170.179993 152.399994 231.539993 77 175 74
166.369995 110.489998 245.160004 77 175 74
180.339996 162.559998 245.160004 77 175 74
410.209991 152.399994 231.539993 77 175 74
601.979980 68.580002 231.539993 55 126 184
