ply
format ascii 1.0
element vertex 1117
property float x
property float y
property float z
property uchar red
property uchar green
property uchar blue
end_header
163.830002 447.040009 54.240002 77 175 74
204.470001 411.480011 67.800003 77 175 74
177.800003 424.179993 81.360001 77 175 74
170.179993 427.989990 81.360001 77 175 74
314.959991 349.250000 101.699997 77 175 74
189.341904 366.562836 105.388687 77 175 74
455.929993 438.149994 27.120001 55 126 184
334.010010 469.899994 33.900002 228 26 28
374.649994 473.709991 33.900002 228 26 28
366.703735 329.256256 75.414879 228 26 28
510.540009 514.349976 88.139999 55 126 184
139.699997 314.959991 142.380005 77 175 74
196.850006 261.619995 122.040001 77 175 74
288.290009 175.259995 142.380005 77 175 74
185.419998 234.949997 142.380005 77 175 74
193.039993 243.839996 155.940002 77 175 74
420.369995 323.850006 122.040001 77 175 74
368.299988 303.529999 128.820007 77 175 74
331.470001 306.070007 128.820007 77 175 74
92.709999 453.390015 122.040001 77 175 74
171.449997 332.739990 115.260002 77 175 74
176.529999 436.880005 115.260002 77 175 74
211.044403 388.058868 130.018005 77 175 74
219.710007 424.179993 122.040001 77 175 74
255.270004 374.649994 142.380005 77 175 74
281.105316 413.248352 176.730042 77 175 74
279.399994 436.880005 189.839996 228 26 28
229.869995 364.489990 210.179993 55 126 184
373.380005 336.549988 122.040001 77 175 74
377.190002 382.269989 122.040001 77 175 74
341.630005 393.700012 128.820007 77 175 74
370.839996 330.200012 142.380005 77 175 74
372.109985 344.170013 142.380005 77 175 74
463.549988 356.869995 142.380005 55 126 184
402.589996 381.000000 169.500000 55 126 184
440.690002 346.709991 203.399994 55 126 184
513.080017 340.359985 203.399994 228 26 28
60.959999 504.190002 135.600006 228 26 28
52.070000 508.000000 162.720001 55 126 184
224.789993 584.200012 176.279999 55 126 184
169.570435 504.799561 198.109558 228 26 28
246.380005 102.870003 284.760010 228 26 28
485.140015 144.779999 311.880005 228 26 28
228.600006 250.190002 264.420013 228 26 28
219.038391 287.691620 295.125458 228 26 28
381.000000 292.100006 318.660004 228 26 28
457.200012 303.529999 318.660004 228 26 28
525.780029 252.729996 318.660004 228 26 28
161.289993 407.670013 277.980011 228 26 28
250.190002 326.390015 223.740005 55 126 184
270.510010 340.359985 237.300003 228 26 28
474.345001 398.144989 254.250000 228 26 28
347.303619 351.790009 268.030914 228 26 28
334.010010 356.869995 271.200012 228 26 28
461.010010 481.329987 277.980011 228 26 28
444.500000 365.760010 311.880005 228 26 28
524.510010 374.649994 305.100006 228 26 28
137.348114 539.552673 245.133560 55 126 184
123.190002 514.349976 257.640015 77 175 74
186.690002 510.540009 257.640015 55 126 184
201.929993 515.338440 288.525818 55 126 184
251.460007 119.379997 108.480003 77 175 74
384.043762 49.792469 112.570602 77 175 74
87.629997 299.720001 88.139999 77 175 74
184.149994 242.570007 74.580002 77 175 74
514.349976 243.839996 27.120001 55 126 184
161.149643 467.579437 42.782528 228 26 28
119.379997 401.320007 54.240002 77 175 74
123.835213 463.227386 65.271133 77 175 74
173.990005 410.209991 81.360001 77 175 74
262.253876 443.863861 89.705032 77 175 74
212.089996 422.910004 108.480003 77 175 74
328.929993 449.579987 74.580002 77 175 74
406.399994 441.959991 81.360001 77 175 74
176.529999 224.789993 115.260002 77 175 74
316.230011 210.820007 135.600006 77 175 74
284.480011 309.880005 142.380005 77 175 74
58.419998 419.100006 142.380005 77 175 74
127.000000 469.899994 142.380005 55 126 184
155.141693 342.647034 198.458755 77 175 74
377.190002 416.559998 115.260002 77 175 74
361.950012 405.130005 169.500000 55 126 184
49.771767 522.272949 195.329300 55 126 184
241.300003 585.469971 189.839996 77 175 74
515.552795 531.394226 179.849380 77 175 74
504.316223 583.519531 212.333252 55 126 184
269.239990 119.379997 250.860001 228 26 28
87.629997 267.970001 237.300003 228 26 28
196.850006 313.690002 237.300003 228 26 28
251.460007 213.360001 271.200012 228 26 28
279.399994 238.759995 284.760010 228 26 28
388.619995 287.019989 284.760010 228 26 28
361.950012 298.450012 298.320007 228 26 28
424.179993 240.029999 311.880005 228 26 28
90.169998 449.579987 237.300003 228 26 28
115.570000 397.510010 277.980011 55 126 184
120.650002 406.399994 277.980011 55 126 184
368.299988 483.869995 237.300003 55 126 184
444.500000 483.869995 257.640015 55 126 184
326.390015 445.769989 264.420013 228 26 28
334.010010 365.760010 305.100006 55 126 184
245.110001 67.309998 108.480003 77 175 74
99.059998 245.110001 74.580002 77 175 74
144.779999 298.450012 74.580002 77 175 74
209.550003 256.540009 101.699997 77 175 74
397.510010 194.309998 88.139999 77 175 74
104.139999 417.829987 67.800003 77 175 74
114.300003 430.529999 67.800003 77 175 74
219.710007 389.890015 88.139999 77 175 74
212.089996 379.730011 101.699997 77 175 74
99.059998 521.969971 40.680000 77 175 74
72.389999 535.940002 40.680000 77 175 74
204.470001 322.579987 135.600006 55 126 184
180.339996 163.830002 169.500000 55 126 184
410.209991 317.500000 115.260002 228 26 28
398.779999 295.910004 216.960007 55 126 184
63.500000 463.549988 169.500000 55 126 184
111.760002 464.820007 183.059998 55 126 184
245.110001 370.839996 189.839996 55 126 184
427.989990 344.170013 115.260002 55 126 184
455.929993 476.250000 189.839996 55 126 184
158.750000 563.880005 183.059998 55 126 184
54.610001 515.619995 210.179993 55 126 184
243.839996 85.089996 284.760010 228 26 28
95.250000 220.979996 250.860001 228 26 28
123.190002 256.540009 291.540009 228 26 28
596.395813 281.174164 282.068481 55 126 184
588.010010 293.369995 277.980011 55 126 184
133.350006 448.309998 230.520004 55 126 184
90.169998 400.049988 250.860001 55 126 184
64.769997 370.839996 257.640015 55 126 184
167.772141 331.602142 237.176315 55 126 184
337.820007 490.220001 277.980011 55 126 184
156.210007 125.730003 74.580002 77 175 74
223.520004 129.539993 74.580002 77 175 74
238.759995 129.539993 74.580002 77 175 74
256.540009 53.340000 81.360001 228 26 28
194.309998 119.379997 94.919998 77 175 74
140.970001 184.149994 67.800003 77 175 74
81.279999 266.700012 67.800003 77 175 74
48.259998 285.750000 67.800003 77 175 74
172.720001 242.570007 74.580002 77 175 74
274.320007 168.910004 81.360001 55 126 184
267.970001 303.529999 81.360001 55 126 184
165.100006 270.510010 94.919998 55 126 184
255.270004 290.829987 101.699997 55 126 184
424.179993 200.660004 61.020000 55 126 184
511.809998 200.660004 51.750557 55 126 184
505.459991 200.660004 54.240002 77 175 74
513.080017 201.929993 74.580002 77 175 74
494.029999 294.640015 74.580002 77 175 74
55.880001 412.750000 54.240002 77 175 74
97.790001 459.739990 54.240002 77 175 74
106.680000 454.660004 67.800003 77 175 74
275.589996 424.179993 61.020000 55 126 184
481.329987 373.380005 27.120001 228 26 28
443.230011 431.799988 33.900002 55 126 184
365.760010 486.410004 40.680000 55 126 184
419.100006 467.359985 61.020000 77 175 74
383.472015 417.829987 71.371513 77 175 74
436.880005 344.170013 81.360001 77 175 74
508.000000 426.720001 20.340000 77 175 74
24.129999 499.109985 40.680000 55 126 184
107.949997 511.809998 40.680000 55 126 184
33.020000 501.649994 47.459999 77 175 74
148.589996 511.809998 81.360001 77 175 74
165.100006 541.020020 20.340000 228 26 28
217.169998 513.080017 27.120001 228 26 28
181.610001 519.429993 27.120001 228 26 28
450.850006 539.750000 6.780000 228 26 28
149.860001 144.779999 115.260002 77 175 74
280.670013 87.629997 122.040001 77 175 74
258.608063 110.489998 126.300461 77 175 74
256.540009 93.980003 128.820007 77 175 74
350.519989 147.320007 149.160004 77 175 74
152.399994 283.209991 196.619995 77 175 74
166.369995 322.579987 128.820007 77 175 74
302.260010 304.799988 135.600006 77 175 74
181.610001 313.690002 155.940002 77 175 74
208.279999 273.049988 162.720001 77 175 74
314.959991 280.670013 162.720001 77 175 74
398.779999 247.649994 115.260002 77 175 74
401.320007 248.919998 128.820007 77 175 74
368.299988 290.195007 132.210007 77 175 74
381.000000 245.110001 149.160004 77 175 74
154.940002 377.190002 115.260002 77 175 74
27.940001 422.910004 122.040001 77 175 74
109.220001 414.019989 128.820007 77 175 74
232.410004 426.720001 128.820007 77 175 74
197.886612 372.452698 156.985840 77 175 74
335.279999 439.420013 115.260002 77 175 74
334.010010 336.549988 126.083488 77 175 74
415.290009 359.410004 122.040001 77 175 74
340.359985 411.480011 128.820007 77 175 74
463.549988 428.439728 198.253479 77 175 74
120.650002 497.839996 122.040001 77 175 74
68.580002 506.730011 216.960007 77 175 74
83.820000 570.229980 216.960007 77 175 74
485.140015 582.929993 176.279999 77 175 74
481.329987 588.010010 176.279999 77 175 74
590.549988 515.619995 183.059998 77 175 74
539.750000 525.780029 183.059998 77 175 74
574.039978 553.719971 183.059998 77 175 74
121.919998 49.529999 311.880005 228 26 28
168.910004 96.519997 298.320007 228 26 28
92.709999 273.049988 298.320007 228 26 28
147.320007 180.339996 305.100006 228 26 28
237.490005 190.500000 284.760010 228 26 28
173.990005 292.100006 318.660004 228 26 28
383.540009 273.049988 311.880005 228 26 28
184.149994 438.149994 318.660004 228 26 28
485.140015 396.239990 264.420013 55 126 184
483.869995 463.549988 284.760010 55 126 184
588.010010 365.760010 264.420013 55 126 184
491.489990 436.880005 291.540009 77 175 74
527.049988 335.279999 298.320007 77 175 74
504.190002 552.450012 237.300003 55 126 184
160.020004 43.180000 94.919998 77 175 74
161.289993 179.070007 54.240002 77 175 74
19.049999 468.630005 61.020000 77 175 74
391.160004 606.367371 213.877716 77 175 74
499.109985 613.409973 176.279999 77 175 74
538.479980 612.140015 183.059998 77 175 74
581.659973 574.039978 196.619995 77 175 74
546.099976 369.570007 311.880005 77 175 74
190.500000 67.309998 67.800003 77 175 74
468.630005 118.110001 94.919998 77 175 74
476.250000 50.799999 108.480003 77 175 74
415.290009 72.389999 108.480003 77 175 74
393.327118 129.988571 115.490631 77 175 74
509.269989 123.190002 81.360001 228 26 28
509.269989 156.210007 81.360001 228 26 28
137.160004 261.619995 67.800003 77 175 74
60.959999 217.169998 74.580002 77 175 74
71.120003 238.759995 74.580002 77 175 74
95.250000 255.270004 81.360001 77 175 74
105.410004 180.339996 94.919998 77 175 74
182.077591 248.585190 65.303696 77 175 74
204.470001 203.199997 67.800003 77 175 74
196.850006 185.419998 94.919998 77 175 74
191.770004 198.119995 94.919998 77 175 74
204.470001 220.979996 101.699997 77 175 74
260.350006 210.820007 108.480003 77 175 74
483.869995 306.070007 47.459999 77 175 74
455.929993 233.679993 81.360001 77 175 74
364.489990 309.880005 81.360001 77 175 74
457.200012 208.279999 94.919998 77 175 74
156.210007 349.250000 101.699997 77 175 74
288.290009 414.019989 74.580002 77 175 74
284.480011 419.100006 108.480003 77 175 74
553.719971 411.480011 20.340000 228 26 28
133.350006 500.380005 40.680000 228 26 28
396.239990 521.969971 13.560000 228 26 28
514.349976 534.669983 6.780000 228 26 28
138.429993 147.320007 155.940002 228 26 28
160.020004 123.190002 216.960007 228 26 28
252.729996 96.519997 122.040001 77 175 74
266.700012 116.839996 135.600006 77 175 74
168.910004 158.750000 196.619995 228 26 28
179.070007 138.429993 216.960007 228 26 28
392.429993 57.150002 115.260002 77 175 74
372.109985 66.040001 142.380005 77 175 74
365.760010 107.949997 142.380005 77 175 74
364.489990 134.619995 142.380005 77 175 74
396.856354 87.013634 154.195251 77 175 74
340.359985 151.130005 155.940002 77 175 74
334.010010 161.289993 155.940002 77 175 74
358.140015 91.440002 162.720001 77 175 74
393.700012 148.589996 162.720001 77 175 74
367.029999 152.399994 162.720001 77 175 74
274.320007 179.070007 115.260002 77 175 74
223.520004 298.450012 115.260002 77 175 74
269.239990 173.990005 135.600006 77 175 74
281.940002 191.770004 135.600006 77 175 74
172.720001 269.239990 135.600006 77 175 74
262.890015 241.300003 142.380005 77 175 74
308.609985 303.529999 142.380005 77 175 74
300.989990 167.639999 149.160004 77 175 74
199.389999 191.770004 149.160004 77 175 74
246.380005 306.070007 162.720001 77 175 74
300.989990 306.070007 162.720001 77 175 74
220.979996 237.490005 189.839996 228 26 28
250.190002 276.859985 216.960007 228 26 28
387.350006 210.820007 128.820007 77 175 74
355.600006 207.009995 149.160004 77 175 74
408.940002 285.750000 149.160004 77 175 74
351.790009 229.869995 155.940002 77 175 74
397.510010 163.830002 162.720001 55 126 184
530.859985 279.399994 189.839996 228 26 28
538.479980 287.019989 216.960007 228 26 28
143.509995 424.179993 122.040001 55 126 184
134.619995 408.940002 169.500000 77 175 74
147.320007 464.820007 203.399994 77 175 74
290.829987 435.609985 115.260002 77 175 74
287.019989 340.359985 155.940002 77 175 74
198.119995 378.459991 216.960007 77 175 74
440.690002 427.989990 176.279999 77 175 74
40.639999 556.260010 189.839996 77 175 74
179.070007 501.649994 203.399994 55 126 184
170.179993 520.700012 203.399994 55 126 184
520.700012 542.289978 169.500000 77 175 74
570.229980 519.429993 183.059998 77 175 74
527.049988 579.119995 189.839996 77 175 74
130.809998 130.809998 250.860001 228 26 28
157.479996 124.459999 264.420013 228 26 28
143.509995 135.889999 271.200012 228 26 28
180.339996 87.629997 223.740005 228 26 28
260.350006 139.065002 281.369995 228 26 28
181.610001 127.000000 298.320007 228 26 28
171.449997 90.169998 311.880005 228 26 28
262.890015 134.619995 318.660004 228 26 28
120.650002 233.679993 250.860001 228 26 28
146.050003 232.410004 271.200012 228 26 28
110.489998 181.610001 291.540009 228 26 28
143.509995 167.639999 311.880005 228 26 28
195.580002 193.039993 223.740005 228 26 28
175.259995 198.119995 223.740005 228 26 28
223.520004 177.800003 230.520004 228 26 28
234.949997 205.740005 237.300003 228 26 28
193.039993 168.910004 257.640015 228 26 28
269.239990 252.729996 311.880005 228 26 28
250.190002 194.309998 318.660004 228 26 28
377.190002 257.809998 230.520004 228 26 28
392.429993 274.320007 237.300003 228 26 28
398.779999 228.600006 264.420013 228 26 28
352.530762 291.359222 274.778229 228 26 28
586.739990 242.570007 244.080002 228 26 28
577.849976 251.460007 264.420013 228 26 28
582.929993 270.510010 284.760010 228 26 28
604.520020 201.929993 291.540009 228 26 28
538.479980 264.160004 291.540009 228 26 28
541.020020 265.429993 311.880005 228 26 28
120.650002 346.709991 237.300003 55 126 184
113.029999 406.399994 237.300003 55 126 184
151.130005 419.100006 237.300003 55 126 184
160.020004 440.690002 237.300003 55 126 184
100.330002 478.790009 250.860001 55 126 184
128.270004 412.750000 257.640015 55 126 184
117.285210 420.547272 267.094818 55 126 184
138.429993 415.290009 277.980011 55 126 184
153.669998 367.029999 298.320007 55 126 184
208.279999 365.760010 223.740005 55 126 184
207.009995 378.459991 237.300003 55 126 184
167.639999 448.309998 237.300003 55 126 184
186.690002 405.130005 244.080002 55 126 184
306.070007 467.359985 271.200012 55 126 184
322.579987 436.880005 291.540009 228 26 28
269.239990 414.019989 318.660004 228 26 28
463.549988 386.079987 257.640015 55 126 184
627.380005 429.260010 237.300003 55 126 184
488.950012 440.690002 244.080002 77 175 74
44.450001 488.950012 230.520004 77 175 74
483.869995 501.649994 264.420013 77 175 74
584.200012 495.299988 223.740005 77 175 74
530.859985 553.719971 223.740005 77 175 74
85.089996 154.940002 74.580002 77 175 74
157.479996 100.330002 81.360001 77 175 74
109.220001 125.730003 81.360001 77 175 74
195.580002 120.650002 67.800003 77 175 74
275.589996 124.459999 88.139999 77 175 74
241.300003 96.519997 101.699997 77 175 74
233.679993 147.320007 101.699997 77 175 74
483.869995 149.860001 61.020000 77 175 74
420.369995 92.709999 81.360001 77 175 74
436.880005 111.760002 81.360001 77 175 74
435.609985 151.130005 108.480003 77 175 74
102.252319 244.492310 50.942440 77 175 74
139.699997 267.970001 47.459999 77 175 74
100.330002 315.430786 51.726681 77 175 74
143.509995 278.130005 54.240002 77 175 74
124.459999 283.209991 54.240002 77 175 74
73.660004 237.490005 64.857224 77 175 74
106.680000 252.729996 67.800003 77 175 74
96.519997 279.399994 67.800003 77 175 74
129.539993 285.750000 67.800003 77 175 74
116.622589 324.376282 71.770332 77 175 74
85.886566 184.623428 78.832550 77 175 74
74.930000 196.850006 74.580002 77 175 74
121.919998 312.420013 74.580002 77 175 74
142.240005 292.100006 81.360001 77 175 74
132.080002 191.770004 88.139999 77 175 74
135.889999 163.830002 94.919998 77 175 74
54.610001 165.100006 94.919998 77 175 74
144.779999 231.139999 101.699997 77 175 74
186.690002 191.770004 61.020000 77 175 74
233.679993 170.179993 88.139999 77 175 74
170.179993 176.529999 88.139999 77 175 74
177.800003 311.149994 88.139999 77 175 74
481.804199 315.434204 27.661783 228 26 28
486.410004 281.940002 54.240002 55 126 184
482.600006 289.559998 61.020000 77 175 74
477.519989 181.610001 67.800003 77 175 74
394.970001 311.149994 81.360001 77 175 74
400.049988 236.220001 88.139999 77 175 74
422.910004 275.589996 88.139999 77 175 74
411.480011 165.100006 101.699997 77 175 74
419.100006 177.800003 101.699997 77 175 74
529.590027 265.429993 33.900002 228 26 28
542.289978 276.859985 47.459999 228 26 28
535.940002 201.929993 61.020000 228 26 28
101.599998 397.510010 33.900002 228 26 28
43.180000 459.739990 54.240002 77 175 74
83.820000 468.630005 67.800003 77 175 74
36.830002 387.350006 74.580002 77 175 74
57.150002 466.089996 74.580002 77 175 74
50.799999 478.790009 94.919998 77 175 74
139.699997 402.589996 101.699997 77 175 74
251.460007 487.679993 33.900002 55 126 184
205.740005 447.040009 88.139999 77 175 74
370.839996 476.250000 47.459999 77 175 74
472.440002 337.820007 61.020000 77 175 74
398.779999 407.670013 61.020000 77 175 74
542.289978 365.760010 54.240002 228 26 28
529.590027 447.733917 59.167759 228 26 28
97.790001 539.750000 27.120001 228 26 28
146.050003 546.099976 33.900002 228 26 28
158.750000 104.139999 149.160004 228 26 28
284.480011 128.270004 155.940002 55 126 184
203.199997 157.479996 189.839996 55 126 184
396.239990 48.259998 128.820007 77 175 74
392.429993 91.440002 142.380005 77 175 74
340.359985 76.199997 149.160004 77 175 74
370.839996 31.750000 155.940002 77 175 74
403.859985 115.570000 162.720001 77 175 74
73.660004 269.239990 149.160004 55 126 184
251.460007 199.389999 149.160004 55 126 184
191.770004 207.009995 155.940002 55 126 184
168.910004 232.410004 155.940002 55 126 184
254.634995 294.005005 159.330002 77 175 74
368.299988 295.910004 115.260002 77 175 74
417.829987 172.720001 122.040001 77 175 74
364.489990 181.610001 128.820007 77 175 74
370.839996 313.690002 135.600006 77 175 74
344.170013 237.490005 149.160004 77 175 74
90.169998 349.250000 135.600006 55 126 184
139.091446 453.998535 186.591202 55 126 184
264.160004 327.660004 122.040001 77 175 74
322.579987 350.519989 135.600006 77 175 74
274.320007 328.929993 142.380005 77 175 74
285.750000 370.839996 155.940002 77 175 74
289.559998 389.890015 155.940002 77 175 74
227.330002 340.359985 203.399994 55 126 184
289.559998 344.170013 216.960007 228 26 28
429.260010 351.790009 169.500000 228 26 28
424.179993 359.410004 183.059998 55 126 184
607.059998 485.140015 169.500000 55 126 184
543.559998 421.640015 196.619995 77 175 74
554.989990 482.600006 210.179993 77 175 74
50.799999 525.780029 183.059998 55 126 184
43.180000 529.590027 183.059998 55 126 184
180.339996 496.570007 189.839996 77 175 74
560.070007 581.659973 176.279999 77 175 74
523.239990 594.359985 176.279999 77 175 74
552.450012 570.229980 183.059998 55 126 184
115.570000 121.919998 250.860001 55 126 184
161.289993 161.289993 291.540009 228 26 28
227.330002 157.479996 223.740005 228 26 28
193.039993 81.279999 277.980011 228 26 28
171.449997 146.050003 277.980011 228 26 28
190.500000 106.680000 284.760010 228 26 28
224.789993 132.080002 291.540009 228 26 28
49.529999 270.510010 298.320007 228 26 28
102.870003 252.729996 318.660004 228 26 28
166.369995 229.869995 244.080002 228 26 28
269.239990 248.919998 244.080002 228 26 28
208.279999 182.880005 277.980011 228 26 28
311.149994 325.119995 298.320007 228 26 28
393.700012 266.700012 223.740005 228 26 28
335.279999 316.230011 230.520004 228 26 28
353.059998 283.209991 257.640015 228 26 28
341.630005 308.609985 298.320007 228 26 28
349.250000 295.910004 318.660004 228 26 28
515.619995 172.720001 230.520004 228 26 28
553.719971 238.759995 244.080002 228 26 28
69.849998 330.200012 284.760010 228 26 28
147.320007 436.880005 284.760010 228 26 28
200.660004 430.529999 230.520004 228 26 28
176.529999 401.320007 257.640015 228 26 28
312.420013 335.279999 311.880005 228 26 28
426.720001 396.239990 244.080002 228 26 28
373.380005 361.950012 271.200012 228 26 28
585.469971 392.429993 237.300003 55 126 184
544.466980 424.270477 241.658997 77 175 74
502.920013 440.690002 284.760010 77 175 74
128.270004 579.119995 230.520004 55 126 184
285.750000 563.880005 271.200012 228 26 28
375.920013 598.169983 257.640015 228 26 28
384.809998 582.929993 264.420013 55 126 184
521.969971 497.839996 250.860001 77 175 74
160.020004 152.399994 108.480003 77 175 74
203.199997 128.270004 81.360001 77 175 74
226.059998 67.309998 88.139999 77 175 74
474.980011 81.279999 81.360001 77 175 74
161.289993 254.000000 54.240002 77 175 74
88.900002 302.260010 67.800003 77 175 74
154.940002 226.059998 108.480003 77 175 74
187.360260 259.750244 51.038227 228 26 28
187.960007 251.460007 81.360001 228 26 28
449.579987 203.199997 54.240002 228 26 28
137.160004 464.820007 40.680000 55 126 184
41.910000 472.440002 54.240002 55 126 184
213.360001 485.140015 40.680000 55 126 184
313.690002 467.359985 47.459999 55 126 184
448.309998 482.600006 33.900002 55 126 184
506.730011 377.190002 40.680000 77 175 74
60.959999 520.700012 108.480003 228 26 28
367.029999 496.570007 40.680000 228 26 28
279.399994 160.020004 115.260002 77 175 74
388.619995 96.519997 128.820007 77 175 74
360.679993 135.889999 155.940002 77 175 74
171.449997 243.839996 142.380005 77 175 74
261.619995 257.809998 142.380005 77 175 74
322.579987 285.750000 149.160004 77 175 74
214.630005 165.100006 155.940002 77 175 74
167.639999 180.339996 162.720001 228 26 28
223.520004 187.960007 162.720001 55 126 184
420.369995 266.700012 128.820007 77 175 74
124.459999 354.329987 122.040001 77 175 74
140.970001 410.209991 216.960007 55 126 184
289.559998 351.790009 155.940002 55 126 184
485.140015 440.690002 176.279999 55 126 184
453.390015 452.119995 196.619995 55 126 184
467.359985 408.940002 203.399994 55 126 184
547.369995 431.799988 196.619995 55 126 184
45.720001 543.559998 183.059998 55 126 184
55.880001 552.450012 183.059998 55 126 184
69.849998 601.979980 203.399994 228 26 28
222.250000 596.900024 176.279999 228 26 28
258.681671 573.168335 187.613388 228 26 28
405.130005 601.979980 169.500000 228 26 28
481.329987 491.489990 183.059998 228 26 28
483.869995 600.710022 183.059998 55 126 184
436.880005 614.679993 208.174103 77 175 74
523.167114 556.260010 173.890244 77 175 74
532.130005 580.390015 169.500000 77 175 74
491.489990 548.640015 176.279999 77 175 74
525.780029 568.960022 176.279999 77 175 74
516.890015 603.250000 176.279999 77 175 74
492.760010 607.059998 196.619995 55 126 184
127.000000 95.250000 257.640015 228 26 28
111.760002 114.300003 291.540009 228 26 28
144.779999 129.539993 305.100006 228 26 28
195.580002 115.570000 284.760010 228 26 28
214.630005 86.360001 291.540009 228 26 28
463.549988 139.699997 318.660004 228 26 28
200.660004 180.339996 244.080002 228 26 28
170.179993 186.690002 244.080002 228 26 28
190.500000 222.250000 257.640015 228 26 28
177.800003 255.270004 277.980011 228 26 28
227.330002 261.619995 277.980011 228 26 28
364.489990 246.380005 277.980011 228 26 28
384.809998 275.589996 277.980011 228 26 28
461.010010 175.259995 311.880005 228 26 28
514.349976 305.782196 241.458206 228 26 28
548.640015 317.500000 284.760010 228 26 28
557.530029 313.690002 291.540009 228 26 28
168.910004 396.239990 223.740005 228 26 28
170.179993 461.010010 237.300003 228 26 28
179.070007 411.480011 257.640015 55 126 184
170.179993 449.579987 264.420013 55 126 184
217.169998 473.709991 264.420013 55 126 184
323.555847 450.101379 288.756561 55 126 184
209.550003 387.350006 311.880005 228 26 28
165.100006 351.790009 318.660004 55 126 184
445.769989 462.279999 223.740005 55 126 184
438.149994 396.239990 230.520004 55 126 184
431.799988 420.369995 237.300003 55 126 184
473.709991 419.100006 291.540009 228 26 28
474.980011 445.769989 311.880005 228 26 28
469.899994 426.720001 318.660004 228 26 28
568.960022 480.059998 223.740005 55 126 184
548.640015 467.359985 230.520004 55 126 184
577.849976 344.170013 250.860001 55 126 184
495.299988 452.119995 291.540009 228 26 28
528.320007 345.440002 298.320007 228 26 28
157.479996 565.150024 271.200012 228 26 28
268.900116 576.329590 262.605560 55 126 184
177.800003 490.220001 277.980011 77 175 74
199.389999 527.049988 277.980011 55 126 184
248.919998 575.309998 277.980011 228 26 28
168.910004 502.920013 284.760010 55 126 184
487.970215 518.940125 255.024643 77 175 74
445.769989 543.559998 271.200012 77 175 74
516.890015 524.510010 230.520004 77 175 74
521.121216 523.661194 241.070480 77 175 74
488.950012 511.809998 257.640015 77 175 74
149.860001 100.330002 67.800003 77 175 74
137.160004 157.459839 85.844124 77 175 74
134.619995 60.959999 94.919998 55 126 184
132.080002 83.820000 101.699997 77 175 74
148.589996 104.139999 101.699997 77 175 74
137.160004 137.160004 101.699997 55 126 184
105.410004 158.750000 101.699997 55 126 184
214.630005 60.959999 67.800003 228 26 28
240.029999 85.089996 74.580002 228 26 28
220.979996 53.340000 81.360001 77 175 74
214.630005 100.330002 88.139999 77 175 74
203.199997 144.779999 94.919998 77 175 74
288.290009 128.270004 101.699997 77 175 74
226.780869 83.820000 113.794212 77 175 74
405.130005 135.889999 74.580002 228 26 28
378.459991 135.889999 101.699997 228 26 28
473.709991 66.040001 108.480003 55 126 184
504.190002 116.839996 67.800003 77 175 74
500.380005 83.820000 81.360001 55 126 184
140.970001 265.429993 33.900002 228 26 28
162.559998 270.510010 37.290001 55 126 184
102.870003 290.829987 33.900002 77 175 74
102.870003 262.890015 54.240002 77 175 74
130.809998 222.250000 61.020000 77 175 74
118.110001 223.520004 67.800003 77 175 74
44.450001 323.850006 67.800003 77 175 74
83.820000 214.630005 74.580002 77 175 74
146.050003 179.070007 81.360001 77 175 74
129.539993 234.949997 81.360001 77 175 74
93.980003 261.619995 94.919998 77 175 74
110.489998 210.820007 101.699997 55 126 184
57.150002 223.520004 101.699997 55 126 184
85.089996 261.619995 101.699997 77 175 74
153.669998 214.630005 108.480003 77 175 74
207.009995 270.510010 67.800003 55 126 184
257.809998 196.850006 74.580002 228 26 28
196.447037 240.897034 99.548752 55 126 184
237.490005 279.399994 108.480003 77 175 74
438.149994 224.789993 40.680000 228 26 28
476.250000 257.809998 40.680000 228 26 28
478.790009 215.899994 61.020000 55 126 184
356.199738 196.179749 91.718224 228 26 28
462.818237 225.521774 98.826630 55 126 184
439.420013 199.389999 108.480003 55 126 184
554.989990 248.919998 54.240002 228 26 28
491.489990 213.360001 61.020000 228 26 28
490.220001 200.660004 101.699997 228 26 28
80.604897 336.887543 65.997955 77 175 74
69.849998 367.029999 67.800003 77 175 74
35.560001 459.739990 108.480003 77 175 74
464.820007 369.570007 13.560000 228 26 28
389.890015 415.290009 40.680000 228 26 28
448.309998 444.500000 40.680000 77 175 74
332.739990 455.929993 47.459999 228 26 28
484.482849 467.359985 98.428230 55 126 184
520.700012 326.390015 33.900002 77 175 74
492.760010 340.359985 40.680000 55 126 184
560.070007 448.309998 47.459999 228 26 28
427.989990 537.210022 13.560000 228 26 28
365.760010 501.649994 27.120001 228 26 28
151.130005 124.459999 128.820007 228 26 28
247.649994 55.880001 142.380005 228 26 28
171.449997 81.279999 142.380005 228 26 28
191.770004 128.270004 142.380005 228 26 28
284.480011 149.860001 149.160004 77 175 74
299.720001 120.650002 162.720001 77 175 74
297.179993 146.050003 162.720001 77 175 74
406.399994 54.610001 115.260002 77 175 74
375.920013 121.919998 122.040001 77 175 74
374.649994 118.110001 142.380005 77 175 74
379.730011 85.089996 155.940002 77 175 74
355.600006 121.919998 155.940002 77 175 74
420.369995 152.399994 162.720001 77 175 74
124.459999 200.660004 115.260002 77 175 74
123.190002 320.040009 128.820007 77 175 74
128.270004 238.759995 162.720001 55 126 184
87.629997 241.300003 176.279999 228 26 28
173.990005 203.199997 115.260002 55 126 184
176.529999 243.839996 115.260002 77 175 74
242.570007 313.690002 128.820007 77 175 74
289.559998 274.320007 135.600006 77 175 74
321.309998 279.399994 142.380005 77 175 74
299.720001 269.239990 149.160004 77 175 74
168.910004 186.690002 176.279999 55 126 184
425.450012 213.360001 115.260002 228 26 28
467.359985 227.330002 169.500000 228 26 28
505.459991 251.460007 183.059998 228 26 28
535.940002 283.209991 203.399994 228 26 28
44.450001 370.839996 169.500000 55 126 184
322.579987 353.059998 149.160004 77 175 74
171.449997 408.940002 196.619995 77 175 74
163.830002 468.630005 196.619995 55 126 184
614.679993 448.309998 169.500000 55 126 184
566.419983 350.519989 210.179993 55 126 184
533.400024 530.859985 169.500000 77 175 74
516.890015 579.119995 169.500000 77 175 74
541.020020 579.119995 183.059998 77 175 74
541.020020 594.359985 189.839996 77 175 74
520.700012 535.940002 216.960007 77 175 74
161.289993 148.589996 223.740005 228 26 28
102.870003 130.809998 271.200012 228 26 28
200.660004 127.000000 223.740005 228 26 28
196.850006 97.790001 291.540009 228 26 28
195.580002 161.289993 318.660004 228 26 28
495.299988 148.589996 284.760010 228 26 28
143.148697 210.178864 252.592377 228 26 28
151.130005 229.869995 257.640015 228 26 28
184.149994 212.089996 250.860001 228 26 28
237.490005 180.339996 311.880005 228 26 28
246.380005 191.770004 311.880005 228 26 28
213.360001 252.729996 318.660004 228 26 28
422.910004 237.490005 271.200012 228 26 28
331.470001 312.420013 284.760010 228 26 28
543.559998 167.639999 237.300003 228 26 28
622.299988 316.230011 237.300003 55 126 184
146.050003 443.230011 271.200012 55 126 184
185.498230 427.989990 247.678833 55 126 184
68.580002 516.890015 223.740005 55 126 184
113.029999 514.349976 230.520004 77 175 74
146.050003 524.510010 250.860001 55 126 184
131.349792 587.343262 254.419418 55 126 184
510.666779 504.190002 234.248367 55 126 184
533.400024 497.839996 250.860001 55 126 184
113.029999 220.979996 108.480003 55 126 184
314.959991 260.350006 108.480003 55 126 184
115.570000 116.839996 115.260002 77 175 74
224.789993 154.940002 122.040001 77 175 74
186.690002 140.970001 128.820007 77 175 74
204.470001 152.399994 142.380005 55 126 184
455.929993 161.289993 128.820007 55 126 184
381.000000 125.730003 149.160004 77 175 74
433.070007 142.240005 149.160004 228 26 28
459.739990 161.289993 196.619995 228 26 28
73.660004 256.540009 135.600006 228 26 28
76.199997 213.360001 210.179993 228 26 28
245.110001 257.809998 135.600006 55 126 184
447.040009 175.259995 128.820007 77 175 74
431.799988 196.850006 128.820007 77 175 74
350.519989 223.520004 135.600006 77 175 74
423.712860 262.087158 146.666092 77 175 74
386.079987 196.850006 155.940002 77 175 74
346.709991 270.510010 162.720001 77 175 74
439.516754 195.580002 179.928284 228 26 28
506.165405 176.529999 180.045807 228 26 28
537.210022 269.239990 210.179993 228 26 28
44.450001 466.089996 115.260002 55 126 184
562.609985 349.250000 196.619995 55 126 184
608.330017 419.100006 216.960007 55 126 184
472.440002 508.000000 196.619995 77 175 74
541.020020 574.039978 183.059998 55 126 184
76.199997 222.250000 291.540009 55 126 184
185.419998 303.529999 284.760010 228 26 28
189.229996 229.869995 298.320007 228 26 28
193.039993 182.880005 318.660004 228 26 28
394.970001 227.330002 305.100006 228 26 28
368.299988 448.309998 311.880005 228 26 28
570.905212 398.619141 247.684692 55 126 184
505.459991 454.660004 257.640015 55 126 184
576.804016 373.380005 275.187958 55 126 184
121.919998 120.650002 67.800003 77 175 74
300.989990 53.340000 108.480003 77 175 74
273.049988 90.169998 108.480003 77 175 74
401.320007 160.020004 88.139999 77 175 74
403.859985 62.230000 108.480003 77 175 74
492.760010 81.279999 81.360001 55 126 184
252.729996 275.589996 67.800003 228 26 28
476.250000 195.580002 61.020000 77 175 74
445.769989 196.850006 74.580002 77 175 74
454.660004 195.580002 81.360001 77 175 74
41.910000 426.720001 33.900002 77 175 74
43.180000 447.040009 47.459999 77 175 74
53.340000 467.359985 47.459999 77 175 74
48.259998 483.869995 61.020000 77 175 74
176.529999 414.019989 33.900002 228 26 28
241.300003 406.399994 54.240002 228 26 28
292.100006 364.489990 81.360001 55 126 184
443.230011 447.040009 81.360001 55 126 184
537.210022 337.820007 33.900002 55 126 184
57.150002 529.590027 40.680000 55 126 184
53.340000 491.489990 54.240002 55 126 184
381.000000 513.080017 108.480003 55 126 184
212.089996 86.360001 135.600006 55 126 184
429.260010 147.320007 115.260002 55 126 184
64.769997 314.959991 176.279999 228 26 28
97.790001 195.580002 189.839996 228 26 28
162.559998 165.100006 216.960007 228 26 28
227.330002 304.524811 139.630280 55 126 184
243.839996 237.904755 160.437088 55 126 184
199.389999 217.169998 189.839996 228 26 28
171.449997 309.880005 203.399994 228 26 28
421.640015 226.059998 189.839996 228 26 28
519.429993 292.100006 189.839996 228 26 28
38.099998 473.709991 183.059998 55 126 184
25.400000 474.980011 183.059998 55 126 184
157.479996 410.209991 196.619995 55 126 184
31.750000 453.390015 203.399994 77 175 74
276.859985 368.299988 122.040001 77 175 74
548.640015 435.609985 210.179993 77 175 74
146.050003 586.739990 216.960007 228 26 28
182.733826 594.921936 207.180191 228 26 28
486.410004 589.280029 169.500000 55 126 184
420.369995 601.979980 176.279999 55 126 184
504.190002 589.280029 183.059998 77 175 74
134.062012 96.674034 281.781158 228 26 28
100.330002 127.000000 284.760010 228 26 28
123.190002 114.300003 318.660004 228 26 28
204.470001 157.479996 257.640015 228 26 28
199.389999 57.150002 271.200012 228 26 28
107.949997 228.600006 244.080002 228 26 28
257.809998 245.110001 264.420013 228 26 28
508.000000 210.820007 223.740005 228 26 28
618.489990 196.850006 271.200012 228 26 28
520.700012 312.420013 311.880005 228 26 28
103.751907 436.704163 231.828735 55 126 184
104.139999 436.880005 237.300003 55 126 184
114.300003 412.750000 291.540009 228 26 28
50.799999 328.929993 298.320007 228 26 28
132.080002 387.350006 318.660004 228 26 28
186.690002 336.549988 230.520004 228 26 28
180.339996 327.660004 237.300003 55 126 184
218.440002 368.299988 284.760010 55 126 184
176.529999 347.980011 291.540009 228 26 28
190.500000 417.829987 318.660004 228 26 28
438.149994 328.929993 264.420013 228 26 28
414.019989 351.790009 271.200012 228 26 28
521.751465 450.076172 234.651093 55 126 184
572.770020 374.649994 250.860001 77 175 74
88.900002 560.070007 223.740005 77 175 74
77.470001 504.190002 230.520004 77 175 74
128.270004 500.380005 257.640015 77 175 74
134.619995 508.000000 257.640015 55 126 184
229.345139 576.055115 268.397949 228 26 28
332.739990 523.239990 223.740005 228 26 28
339.089996 558.799988 237.300003 228 26 28
383.540009 591.820007 237.300003 228 26 28
351.790009 548.640015 277.980011 228 26 28
339.089996 499.109985 298.320007 228 26 28
88.900002 574.039978 183.059998 228 26 28
150.612701 588.910950 205.448196 228 26 28
185.419998 588.010010 196.619995 228 26 28
221.910126 598.849731 201.585571 228 26 28
214.630005 601.979980 203.399994 228 26 28
586.739990 534.669983 216.960007 55 126 184
105.410004 292.100006 271.200012 228 26 28
97.790001 185.419998 284.760010 228 26 28
106.680000 384.809998 250.860001 228 26 28
104.139999 374.649994 284.760010 55 126 184
471.170013 480.059998 237.300003 55 126 184
585.469971 331.470001 244.080002 55 126 184
595.630005 331.470001 244.080002 77 175 74
64.769997 553.719971 230.520004 77 175 74
130.809998 565.150024 244.080002 77 175 74
433.207733 223.244522 37.657673 228 26 28
453.390015 381.000000 13.560000 55 126 184
410.209991 344.170013 33.900002 55 126 184
403.859985 368.299988 33.900002 228 26 28
101.599998 527.049988 20.340000 228 26 28
148.589996 411.480011 196.619995 228 26 28
220.979996 577.849976 169.500000 228 26 28
266.700012 591.820007 210.179993 228 26 28
224.789993 149.860001 284.760010 228 26 28
17.780001 424.179993 230.520004 55 126 184
60.959999 353.059998 291.540009 55 126 184
100.330002 414.019989 298.320007 55 126 184
125.730003 129.539993 67.800003 77 175 74
120.650002 214.630005 88.139999 77 175 74
233.679993 203.199997 74.580002 77 175 74
243.839996 269.239990 81.360001 77 175 74
229.869995 208.279999 88.139999 77 175 74
198.119995 259.079987 88.139999 77 175 74
274.320007 254.000000 101.699997 77 175 74
434.339996 165.100006 67.800003 228 26 28
151.130005 394.970001 27.120001 228 26 28
298.450012 449.579987 61.020000 55 126 184
78.739998 532.130005 81.360001 228 26 28
318.769989 82.550003 128.820007 77 175 74
313.690002 147.320007 135.600006 228 26 28
273.049988 270.510010 155.940002 55 126 184
552.450012 283.209991 210.179993 55 126 184
439.420013 401.320007 210.179993 55 126 184
577.849976 436.880005 196.619995 228 26 28
125.730003 584.200012 183.059998 228 26 28
86.360001 581.659973 189.839996 228 26 28
257.809998 596.900024 196.619995 228 26 28
200.660004 593.090027 216.960007 228 26 28
424.179993 607.059998 169.500000 228 26 28
511.809998 608.330017 196.619995 228 26 28
200.660004 44.450001 311.880005 228 26 28
129.539993 309.880005 318.660004 228 26 28
403.859985 295.910004 298.320007 228 26 28
501.649994 284.480011 318.660004 228 26 28
95.250000 406.399994 298.320007 228 26 28
142.240005 331.470001 311.880005 228 26 28
464.820007 432.434998 294.929993 228 26 28
246.380005 598.169983 237.300003 228 26 28
265.429993 508.000000 298.320007 228 26 28
394.970001 605.789978 223.740005 228 26 28
222.250000 318.769989 54.240002 228 26 28
203.199997 223.520004 74.580002 77 175 74
186.690002 269.239990 74.580002 77 175 74
312.420013 226.059998 94.919998 55 126 184
401.320007 316.230011 33.900002 55 126 184
397.510010 227.330002 67.800003 77 175 74
407.670013 194.309998 74.580002 77 175 74
365.790710 240.577362 88.303947 228 26 28
370.839996 281.940002 94.919998 77 175 74
387.350006 284.480011 94.919998 77 175 74
330.372589 285.201294 105.550682 77 175 74
379.730011 236.220001 108.480003 77 175 74
547.369995 292.100006 20.340000 77 175 74
542.289978 299.720001 20.340000 228 26 28
548.640015 317.500000 20.340000 228 26 28
64.769997 436.880005 33.900002 228 26 28
124.459999 373.380005 40.680000 77 175 74
78.739998 384.809998 47.459999 77 175 74
172.720001 458.470001 6.780000 228 26 28
214.630005 483.869995 20.340000 55 126 184
306.070007 403.859985 74.580002 55 126 184
252.729996 468.630005 108.480003 55 126 184
405.130005 466.089996 6.780000 228 26 28
396.239990 482.600006 6.780000 55 126 184
465.932526 405.845154 20.540245 55 126 184
415.290009 483.869995 13.560000 228 26 28
444.500000 375.920013 27.120001 228 26 28
330.200012 382.269989 54.240002 55 126 184
335.581024 329.683929 66.989113 228 26 28
463.549988 327.660004 108.480003 228 26 28
492.760010 443.230011 13.560000 228 26 28
576.580017 375.920013 20.340000 228 26 28
535.940002 441.959991 20.340000 228 26 28
500.380005 461.010010 33.900002 55 126 184
515.619995 369.570007 54.240002 55 126 184
509.269989 463.549988 54.240002 55 126 184
558.799988 468.630005 54.240002 228 26 28
504.190002 364.489990 61.020000 228 26 28
535.940002 342.899994 94.919998 228 26 28
551.179993 457.200012 108.480003 228 26 28
82.550003 496.570007 6.780000 228 26 28
152.399994 495.299988 27.120001 55 126 184
77.470001 502.920013 40.680000 228 26 28
33.020000 501.649994 74.580002 77 175 74
44.450001 495.299988 101.699997 55 126 184
180.339996 511.809998 61.020000 228 26 28
363.220001 502.920013 81.360001 228 26 28
391.160004 520.700012 81.360001 228 26 28
411.480011 518.159973 88.139999 228 26 28
424.370605 540.514404 116.371277 228 26 28
527.049988 488.950012 54.240002 228 26 28
548.640015 500.380005 61.020000 228 26 28
121.358086 149.860001 119.040192 55 126 184
273.049988 149.860001 128.820007 77 175 74
314.959991 105.410004 142.380005 77 175 74
318.769989 120.650002 162.720001 77 175 74
237.490005 129.539993 162.720001 228 26 28
231.139999 107.949997 216.960007 228 26 28
238.759995 137.160004 216.960007 228 26 28
199.389999 158.750000 216.960007 228 26 28
331.470001 64.769997 122.040001 228 26 28
360.679993 156.210007 122.040001 55 126 184
455.929993 129.539993 189.839996 228 26 28
114.300003 275.589996 176.279999 228 26 28
69.849998 320.040009 189.839996 228 26 28
69.849998 245.110001 210.179993 228 26 28
248.919998 185.419998 122.040001 77 175 74
202.781387 218.021393 133.365219 77 175 74
218.440002 165.100006 210.179993 228 26 28
240.516739 251.109482 224.947220 228 26 28
472.440002 290.829987 122.040001 228 26 28
450.850006 252.729996 142.380005 55 126 184
353.059998 308.609985 149.160004 77 175 74
427.989990 255.270004 155.940002 77 175 74
435.609985 299.720001 155.940002 55 126 184
518.159973 265.429993 216.960007 228 26 28
76.199997 340.359985 176.279999 228 26 28
52.070000 468.630005 203.399994 77 175 74
259.079987 340.359985 115.260002 77 175 74
293.369995 354.329987 122.040001 77 175 74
248.919998 381.000000 128.820007 77 175 74
172.720001 358.140015 142.380005 77 175 74
240.029999 486.410004 183.059998 77 175 74
177.800003 381.000000 196.619995 55 126 184
220.979996 427.989990 203.399994 55 126 184
469.899994 473.709991 142.380005 55 126 184
388.619995 356.869995 155.940002 55 126 184
486.410004 471.170013 155.940002 55 126 184
483.869995 368.299988 162.720001 55 126 184
462.279999 405.130005 169.500000 55 126 184
335.279999 445.769989 176.279999 55 126 184
415.290009 461.010010 183.059998 55 126 184
396.239990 485.140015 189.839996 55 126 184
483.869995 426.720001 210.179993 55 126 184
444.500000 330.200012 216.960007 228 26 28
530.859985 365.760010 162.720001 228 26 28
547.369995 328.929993 183.059998 228 26 28
593.090027 474.980011 196.619995 55 126 184
518.159973 433.070007 210.179993 55 126 184
499.109985 433.070007 216.960007 55 126 184
66.427299 559.352417 173.330780 55 126 184
146.804047 549.294495 199.350342 55 126 184
43.180000 491.489990 196.619995 55 126 184
198.119995 506.730011 128.820007 55 126 184
187.960007 508.000000 128.820007 55 126 184
179.070007 494.029999 149.160004 77 175 74
226.059998 509.269989 155.940002 228 26 28
368.299988 525.780029 122.040001 228 26 28
443.230011 548.640015 122.040001 228 26 28
421.197632 501.592865 148.854919 55 126 184
397.510010 500.380005 149.160004 55 126 184
377.190002 563.880005 169.500000 55 126 184
387.350006 570.229980 169.500000 55 126 184
459.739990 543.559998 176.279999 55 126 184
334.010010 488.950012 196.619995 55 126 184
471.170013 604.520020 210.179993 55 126 184
363.220001 584.200012 216.960007 55 126 184
381.000000 591.820007 216.960007 228 26 28
455.673584 612.140015 222.371094 228 26 28
514.349976 538.479980 149.160004 228 26 28
495.299988 529.590027 176.279999 228 26 28
551.179993 509.269989 189.839996 55 126 184
537.210022 535.763245 204.806519 55 126 184
156.210007 124.459999 237.300003 228 26 28
102.870003 157.479996 277.980011 228 26 28
80.010002 153.669998 291.540009 228 26 28
78.739998 78.739998 311.880005 228 26 28
257.809998 162.559998 223.740005 228 26 28
184.149994 63.500000 271.200012 228 26 28
212.657104 152.399994 274.952454 228 26 28
226.059998 158.750000 271.200012 228 26 28
163.830002 80.010002 291.540009 228 26 28
168.910004 49.529999 311.880005 228 26 28
237.490005 100.330002 311.880005 228 26 28
466.089996 146.050003 298.320007 228 26 28
524.510010 162.559998 284.760010 228 26 28
500.380005 109.220001 291.540009 228 26 28
499.109985 147.320007 305.100006 228 26 28
90.169998 194.309998 237.300003 228 26 28
60.959999 304.799988 250.860001 228 26 28
129.539993 255.270004 264.420013 228 26 28
143.509995 195.580002 277.980011 228 26 28
99.059998 228.600006 305.100006 228 26 28
246.380005 170.179993 230.520004 228 26 28
207.009995 213.360001 250.860001 228 26 28
230.285019 176.114975 289.324402 228 26 28
213.642227 205.881104 290.786652 228 26 28
201.929993 205.740005 291.540009 228 26 28
290.829987 238.759995 311.880005 228 26 28
283.209991 303.529999 318.660004 228 26 28
485.140015 297.179993 244.080002 228 26 28
471.170013 191.770004 277.980011 228 26 28
420.369995 236.220001 291.540009 228 26 28
478.790009 175.259995 311.880005 228 26 28
562.609985 280.670013 223.740005 228 26 28
549.909973 181.610001 230.520004 228 26 28
577.849976 317.500000 230.520004 228 26 28
499.109985 246.380005 237.300003 228 26 28
590.549988 289.559998 237.300003 228 26 28
520.700012 250.190002 244.080002 228 26 28
565.150024 231.139999 257.640015 228 26 28
488.950012 317.500000 277.980011 228 26 28
36.830002 469.899994 223.740005 55 126 184
101.599998 379.730011 230.520004 55 126 184
30.480000 458.470001 230.520004 55 126 184
95.250000 335.279999 284.760010 55 126 184
325.119995 391.160004 264.420013 228 26 28
288.290009 422.910004 271.200012 228 26 28
254.000000 326.390015 318.660004 228 26 28
434.339996 487.679993 237.300003 228 26 28
441.199219 455.549622 282.729279 228 26 28
458.470001 402.589996 284.760010 228 26 28
472.440002 389.890015 318.660004 55 126 184
580.390015 457.200012 230.520004 55 126 184
612.140015 483.869995 230.520004 55 126 184
584.200012 405.130005 257.640015 77 175 74
95.250000 554.989990 244.080002 77 175 74
88.900002 567.690002 244.080002 55 126 184
298.450012 521.969971 223.740005 228 26 28
212.089996 530.859985 230.520004 228 26 28
194.309998 537.210022 244.080002 55 126 184
203.199997 524.510010 250.860001 55 126 184
191.770004 528.320007 250.860001 55 126 184
228.600006 599.440002 250.860001 228 26 28
220.979996 600.710022 250.860001 228 26 28
273.049988 547.369995 277.980011 228 26 28
454.660004 565.150024 237.300003 77 175 74
388.619995 548.640015 250.860001 77 175 74
374.649994 574.039978 257.640015 77 175 74
383.540009 553.719971 264.420013 77 175 74
426.720001 554.989990 264.420013 77 175 74
420.369995 565.150024 264.420013 77 175 74
567.690002 506.730011 244.080002 228 26 28
229.869995 273.049988 67.800003 228 26 28
240.029999 285.750000 74.580002 228 26 28
528.320007 237.490005 81.360001 55 126 184
205.740005 336.549988 74.580002 55 126 184
313.690002 378.459991 74.580002 55 126 184
255.270004 481.329987 74.580002 55 126 184
267.970001 373.380005 88.139999 55 126 184
354.329987 468.630005 67.800003 77 175 74
543.559998 485.140015 54.240002 55 126 184
497.839996 358.140015 81.360001 55 126 184
445.769989 533.400024 108.480003 228 26 28
342.899994 90.169998 122.040001 228 26 28
339.089996 109.220001 162.720001 55 126 184
458.470001 152.399994 183.059998 55 126 184
148.589996 259.079987 128.820007 55 126 184
78.739998 219.710007 155.940002 228 26 28
102.870003 283.209991 155.940002 228 26 28
102.100746 260.093567 168.131088 228 26 28
143.509995 241.300003 169.500000 228 26 28
214.630005 176.529999 135.600006 55 126 184
298.450012 190.500000 135.600006 77 175 74
299.720001 288.290009 142.380005 77 175 74
260.350006 200.660004 162.720001 228 26 28
255.270004 287.019989 169.500000 228 26 28
255.270004 242.570007 176.279999 228 26 28
173.990005 203.199997 183.059998 228 26 28
180.339996 165.100006 210.179993 228 26 28
433.070007 241.300003 135.600006 55 126 184
388.619995 229.869995 196.619995 228 26 28
521.969971 307.339996 196.619995 228 26 28
501.649994 234.949997 210.179993 228 26 28
125.730003 474.980011 183.059998 228 26 28
266.700012 474.980011 122.040001 228 26 28
275.589996 471.170013 149.160004 228 26 28
219.710007 482.600006 149.160004 228 26 28
325.119995 483.869995 149.160004 228 26 28
280.670013 351.790009 196.619995 228 26 28
444.500000 455.929993 142.380005 228 26 28
364.489990 483.869995 149.160004 55 126 184
511.809998 354.329987 142.380005 228 26 28
72.389999 509.269989 155.940002 228 26 28
